ply
format ascii 1.0
element vertex 1206
property float x
property float y
property float z
property uchar red
property uchar green
property uchar blue
end_header
-2.1071992 1.871207 5.145311 130 115 82
-2.1117992 1.8628608 5.122361 129 114 83
-2.1157358 1.8540431 5.098115 130 115 84
-2.1197207 1.8453828 5.0743012 132 117 86
-2.127362 1.8399976 5.0594935 132 117 86
-2.1322174 1.832288 5.0382943 131 116 85
-2.1377285 1.825237 5.018906 126 111 80
-2.141001 1.816377 4.9945436 130 115 84
-2.1466074 1.8095967 4.975899 130 115 84
-2.1481543 1.799501 4.9481387 129 114 83
-2.1549175 1.793874 4.9326663 128 113 82
-2.1552982 1.783037 4.9028673 127 112 81
-2.1578262 1.7740991 4.8782907 129 114 83
-2.158248 1.7635499 4.849283 129 114 81
-2.1609082 1.7549477 4.825629 123 108 75
-2.1661463 1.7485305 4.807984 128 113 80
-2.1716769 1.7424253 4.7911963 127 112 79
-2.1770573 1.7362738 4.774281 126 111 78
-2.1796756 1.7280055 4.751546 127 110 80
-2.1835697 1.7208409 4.731845 117 100 70
-2.1895661 1.7154075 4.7169046 99 83 50
-2.196895 1.7110755 4.704993 97 78 46
-2.2056603 1.7079062 4.696278 96 77 44
-2.2176065 1.7072225 4.694398 96 78 42
-2.2324686 1.7087785 4.6986766 96 78 40
-2.2454736 1.7089033 4.69902 98 80 42
-2.2611763 1.7110683 4.7049727 98 80 42
-2.2712004 1.7089356 4.6991086 95 77 39
-2.2859905 1.7103931 4.7031164 97 79 41
-2.299294 1.7107282 4.7040377 96 78 42
-2.317227 1.7144848 4.7143674 95 75 40
-2.3281553 1.713046 4.710411 98 78 41
-2.340499 1.7126585 4.709346 94 74 37
-2.3523962 1.7119507 4.7073994 98 78 43
-2.3673542 1.7134657 4.711565 95 75 40
-2.3811986 1.7141627 4.713482 97 77 42
-2.3949263 1.7147686 4.715148 97 77 42
-2.4102113 1.7164772 4.719846 98 78 43
-2.4268363 1.7191167 4.7271037 98 78 43
-2.4402108 1.719438 4.7279873 99 81 45
-2.452554 1.7190329 4.7268734 97 79 41
-2.4636033 1.7177298 4.7232904 97 79 43
-2.4792652 1.71964 4.728543 99 79 44
-2.4924595 1.7198274 4.7290583 100 80 47
-2.5073805 1.7211983 4.7328277 97 77 42
-2.52334 1.7232643 4.7385087 101 78 44
-2.541276 1.7266521 4.747824 100 77 43
-2.5498476 1.7236753 4.739639 101 78 44
-2.5597749 1.7216403 4.734043 98 78 41
-2.5706964 1.7202911 4.7303333 98 78 41
-2.5895157 1.7242141 4.7411203 99 81 43
-2.6038613 1.7251343 4.7436504 93 75 37
-2.6214557 1.7281868 4.752044 98 80 42
-2.6328595 1.7271484 4.749189 94 76 38
-2.6478615 1.7284689 4.75282 92 74 38
-2.6562524 1.7254821 4.744607 95 77 41
-2.6705427 1.7263379 4.74696 95 76 43
-2.6863089 1.7281348 4.751901 95 75 42
-2.70822 1.7338486 4.7676125 94 74 39
-2.7210073 1.7336944 4.7671885 95 75 40
-2.7299664 1.731114 4.760093 95 75 40
-2.7349207 1.7260307 4.7461157 96 78 40
-2.752977 1.7292252 4.7548995 95 77 39
-2.7707608 1.7322193 4.7631326 96 78 40
-2.786295 1.7337856 4.7674394 97 79 41
-2.7937617 1.7303407 4.757967 96 78 42
-2.805591 1.7296171 4.755977 98 78 41
-2.8132515 1.7263421 4.7469716 98 76 39
-2.8266406 1.7265962 4.7476707 99 77 38
-2.8415766 1.7277887 4.7509494 99 77 40
-2.8659806 1.734701 4.7699566 97 77 42
-2.8834546 1.7373753 4.77731 94 74 39
-2.8953211 1.7366618 4.775348 94 76 40
-2.9051569 1.7347422 4.7700696 96 78 40
-2.9153574 1.7330565 4.7654347 96 78 40
-2.9268107 1.7321274 4.76288 98 80 42
-2.94038 1.7324532 4.763776 98 78 41
-2.95816 1.735246 4.771455 97 77 42
-2.9792273 1.7399343 4.7843466 95 75 42
-2.9984245 1.743494 4.794135 94 75 42
-3.0108974 1.74313 4.7931337 94 75 42
-3.0171382 1.7391766 4.7822633 97 77 42
-3.0251439 1.7362702 4.7742715 96 76 41
-3.0346854 1.7342666 4.768762 97 77 42
-3.0495193 1.7352917 4.7715807 95 75 40
-3.0621364 1.735052 4.7709217 94 76 40
-3.082655 1.7392724 4.7825265 98 79 46
-3.096233 1.7395576 4.783311 98 79 46
-3.1062934 1.7378727 4.778678 95 76 43
-3.1081963 1.7316569 4.761586 95 77 41
-3.1212585 1.7316843 4.7616615 96 78 40
-3.1372771 1.7333449 4.7662277 97 79 41
-3.1594026 1.738352 4.7799954 98 78 41
-3.1727734 1.7385205 4.780459 93 78 39
-3.1858113 1.7385058 4.780419 96 78 42
-3.194877 1.7363327 4.774443 90 74 38
-3.2007565 1.7324528 4.7637744 94 78 42
-3.2132242 1.7321556 4.762957 93 77 41
-3.2304769 1.7344298 4.769211 92 76 40
-3.2492123 1.7374787 4.7775946 92 76 40
-3.2612236 1.7369221 4.776064 93 77 41
-3.2779574 1.7388749 4.7814336 94 78 42
-3.294358 1.7406362 4.786277 93 77 41
10.230729 5.527659 15.086192 49 41 22
10.115793 5.487674 14.977065 47 39 20
9.908057 5.418832 14.789179 47 39 20
10.124104 5.5596695 15.173555 47 39 18
9.984023 5.505293 15.02515 45 39 17
9.90329 5.483328 14.965202 46 39 20
9.974487 5.545651 15.135296 45 38 19
9.857243 5.503286 15.019673 45 38 20
9.803602 5.496226 15.000404 44 37 19
9.773115 5.5021415 15.016549 46 39 21
9.623948 5.44101 14.849708 45 36 19
9.581464 5.43993 14.846761 44 35 18
9.521198 5.4287033 14.81612 45 36 19
9.498321 5.438788 14.843644 49 38 20
9.430274 5.4229856 14.800515 48 37 19
9.377202 5.4156947 14.780617 47 39 20
9.366145 5.4327106 14.827058 45 37 18
9.299153 5.4409313 14.849494 50 39 21
9.2006645 5.4069014 14.7566185 51 38 19
9.133814 5.391247 14.713893 50 35 14
9.128627 5.412011 14.770564 102 88 62
9.157652 5.453334 14.883343 109 93 68
9.094616 5.439958 14.846837 112 96 70
8.976319 5.39326 14.719388 111 94 68
8.932955 5.391366 14.714219 111 94 66
8.897305 5.394132 14.721768 112 95 65
8.929212 5.438067 14.841676 0 0 0
8.917845 5.455928 14.890422 112 95 65
8.835249 5.4301744 14.820135 112 95 65
8.944374 5.522559 15.072274 110 93 65
8.959502 5.557493 15.167617 102 85 57
8.850174 5.5151944 15.052174 105 88 62
8.767946 5.489467 14.981958 113 96 70
8.94243 5.705277 15.5709505 54 51 32
6.143213 4.5218763 12.341191 33 51 27
6.1122956 4.523956 12.346867 33 53 25
6.089767 4.532302 12.369645 30 50 22
6.0657725 4.5396442 12.389684 53 69 43
6.084338 4.5790997 12.497366 59 73 50
6.1112456 4.6253138 12.623495 43 54 37
6.0201206 4.8002257 13.100867 0 0 0
6.030297 4.837107 13.201526 33 36 19
6.405028 5.3959575 14.726749 0 0 0
6.3786387 5.4077053 14.758812 37 46 25
6.358774 5.4251695 14.806476 33 45 21
6.3286896 5.434082 14.8308 24 36 14
6.284203 5.4306636 14.821471 61 70 49
4.8131933 6.1963477 16.91119 0 0 0
4.7671933 6.1966286 16.911957 148 148 140
4.723858 6.2004128 16.922285 152 154 143
4.6885824 6.2149563 16.961977 145 148 137
4.6560206 6.2334223 17.012375 143 146 137
3.0083303 6.19136 16.897577 0 0 0
2.9598613 6.1865735 16.884514 110 113 106
2.9120545 6.183042 16.874876 113 114 108
2.8661325 6.1834626 16.876024 111 112 107
2.8210537 6.1857467 16.882257 110 112 107
2.7774024 6.1912885 16.897383 101 103 98
2.730865 6.190475 16.895163 108 110 105
2.6830442 6.1866746 16.88479 111 113 108
2.637507 6.188099 16.888678 112 114 109
2.593905 6.1941953 16.905315 111 113 108
2.5559335 6.2142015 16.959917 108 110 105
2.5197015 6.239255 17.028294 165 167 162
1.0956829 6.347062 17.322523 128 131 124
1.0487076 6.349273 17.328558 141 144 135
1.0017601 6.3518705 17.335646 144 146 135
0.9547395 6.354238 17.342108 144 146 135
0.90730995 6.353989 17.341429 128 130 119
0.8617563 6.3675747 17.378506 88 91 82
0.6325004 5.599373 15.281916 0 0 0
0.58748794 5.5685797 15.197874 37 45 32
0.54689074 5.5781364 15.223956 36 44 29
0.50907356 5.6199565 15.338092 64 72 57
0.47127146 5.669462 15.473205 24 32 17
0.21816815 4.7602453 12.991753 97 104 86
0.18268824 4.760899 12.993537 79 88 67
0.14716722 4.7605395 12.992555 42 52 28
0.1117926 4.766192 13.007982 40 49 30
0.07639577 4.7757277 13.034007 36 44 29
0.040983524 4.8001175 13.100572 29 35 25
0.0052278093 4.843372 13.218622 33 35 30
-2.9835992 5.6455717 15.408002 149 156 162
-3.0184302 5.6319933 15.370943 145 150 156
-3.0408041 5.595863 15.272336 130 133 138
-3.0547616 5.5454326 15.134701 110 111 113
-3.0766478 5.510551 15.0395 107 109 108
-3.100111 5.479376 14.954417 100 102 97
-3.120466 5.44359 14.85675 102 105 98
-3.1469245 5.4192343 14.7902775 103 106 99
-3.16827 5.3868027 14.701765 101 104 97
-3.1818001 5.342062 14.579658 103 102 97
-3.1431787 5.086143 13.881198 110 106 95
-3.1764264 5.078647 13.860741 101 97 86
-3.2201672 5.0879073 13.886014 0 0 0
-3.287831 5.1343107 14.012659 0 0 0
-1.8124565 2.73479 7.4638414 125 117 96
-1.8307016 2.731578 7.455075 124 112 86
-1.8394257 2.714387 7.4081564 134 120 94
-1.84219 2.6888711 7.338518 133 116 90
-1.8518965 2.6739283 7.297736 134 117 91
-1.8603938 2.6575768 7.2531095 131 115 89
-1.8702824 2.6435368 7.214791 130 114 88
-1.8740495 2.6212273 7.1539035 134 118 92
-1.884325 2.608388 7.118862 130 115 86
-1.8891469 2.5883389 7.0641437 132 117 88
-1.8941951 2.5690024 7.01137 130 114 88
-1.8965245 2.5464027 6.949691 135 118 92
-1.8940636 2.5178833 6.871855 132 115 89
-1.88341 2.4791396 6.766115 131 114 88
-1.877835 2.4477694 6.680499 129 112 86
-1.8795645 2.426433 6.6222677 131 114 88
-1.8838923 2.408826 6.574214 130 113 87
-1.8923788 2.3968189 6.541444 135 118 92
-1.8965311 2.3795981 6.494445 131 114 88
-1.906708 2.370186 6.468757 132 115 89
-1.9131533 2.3563507 6.4309974 130 113 87
-1.9182147 2.3410783 6.3893156 131 114 88
-1.9261817 2.3295956 6.3579764 128 111 85
-1.9338713 2.3179855 6.3262906 126 111 82
-1.9408057 2.3056843 6.2927175 129 114 85
-1.9421883 2.2870612 6.2418914 127 112 83
-1.9466946 2.2724092 6.2019024 127 112 81
-1.9558913 2.2634377 6.1774173 127 112 81
-1.960985 2.2499123 6.1405034 127 112 81
-1.9635828 2.233777 6.096467 128 113 82
-1.9729602 2.2255611 6.0740438 128 113 84
-1.9808643 2.215834 6.0474963 130 115 86
-1.9848461 2.2019167 6.009513 130 115 86
-1.983724 2.1826122 5.9568267 132 117 88
-1.9873108 2.1687608 5.919023 133 118 89
-1.994295 2.1588106 5.891867 132 117 88
-1.9998688 2.1475053 5.8610125 128 113 82
-2.004544 2.1354227 5.8280363 129 114 83
-2.0052378 2.1193223 5.784095 126 111 80
-2.0120237 2.1098623 5.7582765 128 115 83
-2.0163133 2.0979517 5.7257695 134 119 88
-2.0236945 2.0894165 5.7024755 129 114 83
-2.0254154 2.0752122 5.6637087 132 117 88
-2.0317705 2.0659356 5.638391 131 116 85
-2.0370126 2.0556755 5.6103888 128 115 83
-2.0429661 2.0462813 5.58475 131 116 87
-2.0475647 2.0356793 5.5558147 129 114 83
-2.049349 2.0224562 5.519726 127 112 81
-2.0488522 2.0071912 5.4780645 129 114 83
-2.0469494 1.9907805 5.433276 129 114 83
-2.0523672 1.9816747 5.4084244 129 114 83
-2.056083 1.9710672 5.379474 126 111 78
-2.068324 1.9687253 5.3730826 126 111 78
-2.0724003 1.9586995 5.34572 128 112 79
-2.0770485 1.949351 5.3202057 127 111 78
-2.0766816 1.9354581 5.282289 127 111 78
-2.082361 1.9273535 5.26017 125 109 76
-2.0892582 1.9204793 5.241409 130 114 81
-2.0965998 1.9141045 5.2240105 131 115 82
-2.0987787 1.9031345 5.194071 130 115 82
-2.1006489 1.8920339 5.163775 129 114 81
-2.1017957 1.8804342 5.132117 127 112 79
-2.1068223 1.8724364 5.110289 128 113 82
-2.1115878 1.8643134 5.0881195 128 113 82
-2.1153138 1.8553848 5.0637517 127 112 81
-2.1213322 1.8485702 5.045153 130 115 86
-2.127161 1.8416793 5.026346 130 115 84
-2.13297 1.83486 5.007735 132 117 84
-2.1344774 1.8244506 4.9793253 128 113 80
-2.1405885 1.8180833 4.9619474 131 116 83
-2.1441536 1.8096471 4.9389234 129 114 83
-2.1482203 1.8017375 4.9173365 133 118 87
-2.1446946 1.7875978 4.878746 127 112 79
-2.1476948 1.7790387 4.8553863 129 114 81
-2.1534474 1.7728504 4.838497 129 114 81
-2.156163 1.7642528 4.8150325 127 113 78
-2.1611264 1.7575877 4.7968416 132 116 83
-2.166672 1.7514734 4.7801547 130 114 81
-2.1714728 1.7448341 4.7620344 131 115 82
-2.1734235 1.7359973 4.737917 129 112 82
-2.1741312 1.7262781 4.711391 124 107 77
-2.1805532 1.721184 4.6974883 101 85 52
-2.189895 1.7184407 4.690001 94 78 45
-2.2015433 1.7175288 4.6875124 92 76 42
-2.2149863 1.7180194 4.6888514 92 76 40
-2.2269816 1.717388 4.687128 95 77 41
-2.2398138 1.7174054 4.6871758 97 79 41
-2.2565553 1.7204032 4.6953573 94 76 38
-2.271996 1.722381 4.700755 95 77 39
-2.2837944 1.7215908 4.6985984 95 75 38
-2.2943628 1.7198873 4.693949 95 75 40
-2.3096216 1.7216992 4.6988945 98 76 39
-2.3225267 1.7217464 4.6990232 94 71 37
-2.3364043 1.72251 4.701107 95 72 38
-2.3476522 1.7213371 4.697906 96 76 41
-2.3632636 1.7233589 4.703424 96 76 41
-2.3749652 1.7225231 4.701143 96 76 41
-2.3894792 1.7237251 4.7044234 95 75 40
-2.401892 1.7234066 4.703554 95 75 40
-2.4201376 1.7272545 4.714056 97 77 42
-2.4352105 1.7288091 4.718299 97 77 42
-2.4501708 1.7302679 4.72228 93 75 39
-2.4626174 1.7299455 4.7214003 95 77 41
-2.4755626 1.729975 4.721481 95 77 41
-2.490636 1.7314837 4.7255983 98 78 43
-2.502855 1.7310027 4.7242856 98 78 43
-2.5187726 1.7330713 4.7299314 100 77 43
-2.5321927 1.7334094 4.730854 99 76 42
-2.5440292 1.7326655 4.7288237 97 77 42
-2.5537164 1.7304724 4.7228384 95 75 40
-2.568682 1.7318604 4.7266264 100 82 46
-2.5844223 1.7337543 4.7317953 97 79 43
-2.6004148 1.7357974 4.7373714 94 76 38
-2.6182873 1.7390691 4.7463007 96 78 40
-2.6292377 1.7377336 4.7426558 96 78 42
-2.6434298 1.7385433 4.7448654 95 77 41
-2.651012 1.7350188 4.7352467 97 79 43
-2.669075 1.7383549 4.7443514 96 76 43
-2.683035 1.7389992 4.74611 94 74 41
-2.6996353 1.7413405 4.7524996 94 74 39
-2.709004 1.7390171 4.7461586 95 75 40
-2.714495 1.7342384 4.7331166 96 78 42
-2.7236075 1.731808 4.7264833 95 77 41
-2.7435987 1.7362849 4.738702 96 78 42
-2.7657964 1.7421095 4.7545986 94 76 40
-2.7773218 1.741189 4.752086 95 77 41
-2.7853742 1.7381098 4.7436824 96 78 42
-2.7983165 1.7380964 4.7436457 99 79 44
-2.8120596 1.7385781 4.7449603 98 75 41
-2.8231966 1.7374517 4.741886 97 74 40
-2.836043 1.7373824 4.7416973 97 75 38
-2.854688 1.7408502 4.7511616 93 73 36
-2.8735664 1.7444284 4.760927 94 74 37
-2.888778 1.7457582 4.7645564 95 77 39
-2.9057975 1.7481636 4.7711215 96 78 40
-2.9189641 1.7482401 4.7713304 95 77 39
-2.9319477 1.7482067 4.7712393 93 75 37
-2.9458213 1.748702 4.772591 96 76 39
-2.9601636 1.74947 4.774687 98 78 41
-2.979407 1.753115 4.784635 95 77 41
-2.9938083 1.7538915 4.786754 96 77 44
-3.0023808 1.7512614 4.779576 96 77 44
-3.0046194 1.7449754 4.76242 97 77 44
-3.0178764 1.7451154 4.762802 94 74 41
-3.034542 1.7472167 4.768537 98 78 43
-3.0501518 1.7486945 4.7725706 96 76 41
-3.0635784 1.7489135 4.773168 97 78 45
-3.0807915 1.7512832 4.7796354 96 77 44
-3.0919302 1.7501943 4.776664 96 78 42
-3.0966268 1.7454835 4.763807 96 78 42
-3.102969 1.7417357 4.753578 96 78 40
-3.1152487 1.7413381 4.7524934 95 77 39
-3.1372218 1.7463398 4.766144 95 77 39
-3.1638293 1.7538689 4.7866926 93 78 39
-3.181332 1.7563099 4.7933545 95 80 41
-3.1906848 1.7542497 4.7877316 94 79 40
-3.198508 1.751369 4.7798696 95 79 43
-3.2062423 1.748463 4.771939 93 77 41
-3.2185903 1.7480866 4.770911 95 77 41
-3.232436 1.7485234 4.7721033 94 76 40
-3.2510989 1.7515519 4.780369 95 77 41
-3.2615688 1.7501597 4.7765694 92 74 38
-3.281879 1.7540379 4.7871537 92 76 40
-3.3024237 1.7580103 4.797995 93 77 41
9.954091 5.529727 14.980105 0 0 0
9.86438 5.548348 15.030549 43 36 18
9.498198 5.4099674 14.655675 44 35 18
9.696462 5.5698695 15.088851 43 34 17
9.677926 5.5829644 15.124326 45 36 19
9.336436 5.4323688 14.71636 44 36 17
9.406769 5.4969707 14.891368 47 39 20
9.362828 5.495067 14.88621 47 36 18
9.310049 5.487936 14.866893 48 37 17
9.088064 5.380565 14.576023 53 38 19
9.1946335 5.4676247 14.811869 49 34 13
9.107088 5.439513 14.735714 107 93 67
9.05837 5.434445 14.721985 111 95 70
9.086889 5.475877 14.834224 110 94 68
9.014214 5.4564247 14.7815275 112 96 70
8.92765 5.4283533 14.7054825 111 94 66
9.002099 5.4983726 14.895165 112 95 65
9.008995 5.5275793 14.974287 110 93 63
9.004846 5.550246 15.03569 0 0 0
8.853516 5.481987 14.850777 110 93 65
8.970408 5.5799446 15.116145 109 92 66
8.921775 5.5753684 15.103748 104 88 62
8.596742 5.4478636 14.758336 0 0 0
6.146948 4.5334835 12.281268 31 49 27
6.144098 4.5562596 12.342969 35 55 30
6.1266675 4.568415 12.375898 33 54 23
6.0955496 4.5704427 12.381391 32 53 22
6.0684686 4.5755367 12.39519 59 75 49
6.068106 4.6009464 12.4640255 62 76 53
6.0649624 4.872051 13.198451 0 0 0
6.385758 5.4198484 14.682443 0 0 0
6.3830323 5.4517922 14.768978 33 42 21
6.373968 5.4786935 14.841855 31 43 21
6.348961 5.4921484 14.8783045 25 34 13
6.2632127 5.4528947 14.771965 59 68 47
4.81941 6.2506266 16.933031 0 0 0
4.770657 6.2473836 16.924246 147 148 140
4.723114 6.245676 16.91962 152 153 145
4.688031 6.260575 16.959982 147 150 141
4.65577 6.2795773 17.01146 142 145 136
3.0045826 6.2297683 16.876526 0 0 0
2.9593537 6.231648 16.881618 108 110 105
2.9116082 6.2282043 16.87229 111 114 107
2.8672347 6.231979 16.882515 112 113 107
2.8226511 6.2354126 16.891817 113 114 108
2.7793083 6.2417474 16.908978 106 107 102
2.7332559 6.242108 16.909954 107 109 104
2.6840036 6.2350473 16.890827 111 113 108
2.6384943 6.236587 16.894999 111 113 110
2.5941656 6.241022 16.907013 110 112 109
2.5553575 6.25914 16.956095 102 104 101
2.517549 6.2804213 17.013746 166 167 169
1.0967906 6.400867 17.340034 126 129 122
1.04866 6.3963404 17.327772 144 145 137
1.0008357 6.393341 17.319647 145 147 134
0.95471454 6.4014645 17.341654 142 144 133
0.90698195 6.3990674 17.33516 143 145 134
0.8586778 6.392151 17.316423 77 78 72
0.8063969 6.3530974 17.210627 85 88 81
0.5909358 5.6430387 15.287068 36 44 31
0.54663366 5.6171 15.216799 36 47 31
0.50941485 5.6656694 15.348374 41 52 36
0.4702229 5.6990404 15.438778 46 54 41
0.25399977 4.8019247 13.008479 0 0 0
0.21818215 4.796058 12.992586 34 39 19
0.18257418 4.793415 12.985426 122 130 107
0.14716059 4.7958307 12.99197 35 45 21
0.11184038 4.803794 13.013542 38 47 28
0.07648524 4.8169827 13.049271 37 43 29
0.040994797 4.83725 13.104176 27 33 23
0.005191781 4.845869 13.127524 29 31 26
-2.920977 5.6480145 15.300548 158 163 167
-2.9830027 5.6865425 15.404921 150 157 163
-3.020343 5.677596 15.380684 151 156 162
-3.045298 5.645932 15.294907 138 139 144
-3.0637324 5.6032004 15.179146 124 122 125
-3.0714262 5.5422297 15.013975 107 105 106
-3.0861437 5.4953737 14.887041 106 105 101
-3.113581 5.472091 14.823969 101 103 98
-3.1432858 5.4533415 14.773175 0 0 0
-3.1581447 5.4096375 14.65478 0 0 0
-3.1617692 5.348025 14.487871 106 105 100
-3.146199 5.255871 14.238225 111 108 101
-3.1197371 5.147996 13.945991 112 109 102
-3.1535058 5.140914 13.9268055 106 104 92
-3.216034 5.180326 14.033573 106 106 98
-3.266696 5.1999207 14.086656 105 105 93
-1.8315486 2.7532253 7.458524 127 115 91
-1.8388915 2.7338383 7.406005 130 116 90
-1.8446105 2.7124856 7.34816 132 115 89
-1.8520178 2.6940486 7.298214 131 114 86
-1.8624988 2.6804283 7.2613163 131 115 89
-1.8704584 2.6635044 7.2154694 130 115 86
-1.8777386 2.6459765 7.167986 132 117 88
-1.8861905 2.6304445 7.12591 131 116 87
-1.8901751 2.6090636 7.0679884 131 116 87
-1.8959532 2.5905657 7.0178776 131 115 89
-1.8981476 2.567591 6.9556384 130 114 88
-1.8975786 2.5413709 6.884608 132 115 89
-1.8856634 2.500619 6.7742105 132 115 89
-1.8808062 2.4699283 6.691069 128 111 85
-1.8819153 2.4475884 6.63055 128 112 86
-1.8878951 2.431949 6.5881824 124 108 82
-1.8933237 2.4159014 6.5447097 132 116 90
-1.8989992 2.4004667 6.502897 130 114 88
-1.9076855 2.3890886 6.4720736 128 112 86
-1.914606 2.3757286 6.4358807 128 111 85
-1.9220606 2.3632684 6.402126 128 111 85
-1.9296186 2.3511589 6.3693213 127 111 85
-1.9364468 2.3383849 6.334716 129 113 87
-1.9442419 2.3269942 6.3038588 130 114 88
-1.9470979 2.3099444 6.2576704 132 117 88
-1.9517124 2.2952592 6.2178884 130 115 86
-1.9568019 2.2813816 6.1802936 128 113 82
-1.9624473 2.268384 6.1450825 129 114 81
-1.9651423 2.2522254 6.101309 129 114 81
-1.9722552 2.2413595 6.071873 130 113 83
-1.9779736 2.2291033 6.038671 126 109 81
-1.982429 2.2156386 6.002195 127 112 83
-1.980759 2.1956048 5.947923 131 116 87
-1.9828348 2.1800156 5.9056916 130 114 88
-1.9918268 2.1722207 5.884575 131 116 87
-1.9998068 2.1634557 5.860831 128 113 84
-2.003879 2.1506362 5.8261027 129 114 83
-2.0046284 2.1344807 5.782337 130 115 84
-2.0106745 2.1241734 5.7544146 128 113 80
-2.0197077 2.1171577 5.735409 130 115 82
-2.0243561 2.1056888 5.7043395 129 114 83
-2.0295165 2.0949237 5.6751766 130 115 84
-2.0328166 2.0824163 5.641294 131 116 87
-2.039849 2.0738919 5.618201 129 114 83
-2.0439146 2.0625007 5.5873423 131 116 87
-2.0501168 2.0534189 5.5627394 130 115 86
-2.0516279 2.0398064 5.525863 132 117 86
-2.0528996 2.026157 5.4888864 131 118 86
-2.0517972 2.0103788 5.4461436 128 115 83
-2.0561526 2.0001376 5.4183993 125 110 77
-2.0592577 1.988835 5.3877807 126 111 78
-2.065584 1.9807818 5.3659644 126 111 78
-2.069449 1.9704986 5.338107 129 114 81
-2.074021 1.9610279 5.312451 126 110 77
-2.0763261 1.9495603 5.281385 129 113 80
-2.0809746 1.9404361 5.2566676 128 112 79
-2.0897238 1.9352348 5.242577 127 111 78
-2.097876 1.9295549 5.2271905 124 109 76
-2.1020253 1.9202952 5.2021055 128 113 80
-2.0993302 1.9049492 5.160533 131 116 83
-2.1025403 1.8951309 5.133935 129 114 81
-2.1056166 1.8853227 5.1073647 133 118 85
-2.1162667 1.8823804 5.099394 129 114 83
-2.1168556 1.870586 5.067443 130 115 84
-2.1217568 1.8627309 5.046163 128 113 82
-2.1238868 1.8525598 5.0186095 130 115 84
-2.133723 1.849198 5.0095024 131 116 83
-2.135429 1.8388779 4.981545 127 112 79
-2.1436248 1.8342417 4.9689856 128 113 80
-2.1429145 1.8220911 4.9360695 129 112 82
-2.1488905 1.8157424 4.9188704 130 113 83
-2.1462355 1.8022248 4.8822513 131 115 82
-2.1550045 1.798408 4.8719115 130 114 81
-2.160522 1.7919413 4.854393 131 115 82
-2.1629665 1.7830201 4.8302255 131 115 81
-2.1647246 1.773645 4.804828 126 110 76
-2.1685576 1.7660726 4.7843146 129 113 80
-2.1719513 1.7582355 4.7630835 128 112 79
-2.1730826 1.748671 4.7371736 127 111 78
-2.1728466 1.7381262 4.708607 124 108 75
-2.1802683 1.7337952 4.6968746 104 88 54
-2.1904593 1.7317041 4.69121 96 80 46
-2.2038665 1.7321651 4.6924586 90 74 40
-2.2175498 1.7328366 4.694278 92 73 40
-2.2309012 1.7332428 4.695378 95 77 41
-2.2437084 1.7332236 4.695326 95 77 41
-2.2603643 1.7361608 4.703283 94 76 40
-2.2749212 1.7374617 4.706807 96 78 42
-2.2888412 1.7382643 4.7089815 95 75 40
-2.2995589 1.7366395 4.70458 94 71 39
-2.3143928 1.738124 4.7086015 95 72 40
-2.3247948 1.7362823 4.7036123 93 70 38
-2.3369346 1.7357515 4.702174 95 72 38
-2.3479016 1.7343602 4.6984053 96 73 39
-2.3621757 1.7354136 4.7012587 97 77 44
-2.3741384 1.7347667 4.6995063 94 74 41
-2.3923728 1.7386849 4.7101207 93 73 40
-2.4053 1.7387245 4.710228 95 75 42
-2.424192 1.7430526 4.721953 93 73 40
-2.4354796 1.7418963 4.7188206 94 75 42
-2.4534066 1.7454755 4.7285166 95 77 41
-2.4664552 1.7455647 4.7287583 94 76 40
-2.4788723 1.7452085 4.727793 94 76 40
-2.492494 1.7456995 4.7291236 97 79 43
-2.5014052 1.7429035 4.721549 96 78 42
-2.5168295 1.7446508 4.7262826 97 77 42
-2.5283594 1.7436947 4.7236924 94 74 39
-2.5430212 1.7448971 4.7269497 94 74 39
-2.5551295 1.7443442 4.725452 96 76 41
-2.5726984 1.7475059 4.734017 93 73 38
-2.5880916 1.7491655 4.738513 97 77 42
-2.6041143 1.751232 4.744111 95 75 40
-2.6190145 1.752527 4.747619 96 78 42
-2.6319797 1.7525207 4.747602 94 76 40
-2.6431842 1.7513477 4.7444243 96 78 42
-2.6517978 1.7484778 4.73665 97 79 43
-2.668508 1.7509485 4.7433434 93 75 39
-2.6829863 1.751938 4.7460237 97 78 45
-2.7001226 1.7546453 4.753358 96 76 41
-2.7102554 1.7527971 4.748351 93 75 39
-2.720108 1.7507863 4.7429037 97 79 43
-2.72867 1.7479677 4.735268 95 77 41
-2.744563 1.74985 4.7403674 95 77 41
-2.7628255 1.753218 4.749491 98 80 44
-2.7758389 1.7532393 4.749549 95 75 40
-2.787687 1.7525277 4.747621 96 76 41
-2.8050878 1.7552973 4.755124 99 77 40
-2.8213978 1.757362 4.7607174 96 74 37
-2.8323154 1.7560644 4.757202 101 78 44
-2.8438592 1.7551651 4.754766 101 78 44
-2.8549116 1.753972 4.751534 98 78 41
-2.8722012 1.7566044 4.758665 96 78 40
-2.8850157 1.7564886 4.7583513 94 79 40
-2.908787 1.7630146 4.77603 94 79 40
-2.9237363 1.7641592 4.779131 95 77 39
-2.9366643 1.7640795 4.778915 94 76 38
-2.9463487 1.7620605 4.7734456 93 73 36
-2.95971 1.7622485 4.773955 97 77 40
-2.9768236 1.7646594 4.780486 95 75 40
-2.9946752 1.7674849 4.7881403 93 74 41
-2.9985044 1.7620455 4.773405 95 76 43
-3.0035753 1.7573798 4.7607656 93 73 40
-3.0114684 1.7543983 4.752689 96 76 43
-3.030623 1.7579751 4.762378 97 77 42
-3.0477853 1.7603705 4.7688675 96 76 41
-3.0678568 1.7644188 4.7798343 96 78 42
-3.0842013 1.7662982 4.7849255 90 74 38
-3.096354 1.7657713 4.7834983 92 76 40
-3.1045568 1.7630057 4.776006 94 78 42
-3.114848 1.7614442 4.771776 93 77 41
-3.1221704 1.7582241 4.763053 95 77 39
-3.142759 1.7624705 4.774556 94 79 40
-3.1649966 1.7676024 4.788459 92 76 40
-3.1810966 1.7692785 4.7929993 93 77 41
-3.1864288 1.7649766 4.7813454 94 78 42
-3.197038 1.7636209 4.777673 92 76 40
-3.2074318 1.7621578 4.7737093 96 80 44
-3.2182047 1.7609141 4.77034 96 77 44
-3.236019 1.7635176 4.777393 94 75 42
-3.2538745 1.7661227 4.78445 95 76 43
-3.266295 1.7657685 4.7834907 95 76 43
-3.2853754 1.7690034 4.792254 94 74 41
-3.3048408 1.772419 4.801507 93 74 41
8.969838 4.746542 12.763949 0 0 0
9.590715 5.5975213 15.052322 0 0 0
9.337015 5.472926 14.717273 47 39 20
9.311589 5.481636 14.740694 47 39 20
9.304939 5.501522 14.79417 49 38 18
9.246259 5.490685 14.765028 51 40 20
9.207463 5.4916134 14.767524 53 38 19
9.135874 5.4729037 14.717212 52 37 16
9.094924 5.4724646 14.716031 110 94 69
9.052917 5.471383 14.713122 112 96 71
9.083021 5.5140686 14.8279085 110 94 68
9.050737 5.5190926 14.841419 111 96 67
9.020921 5.525674 14.859117 111 96 65
8.957892 5.5118785 14.82202 110 95 64
8.964467 5.54098 14.900276 112 95 65
8.946112 5.554867 14.937619 0 0 0
9.051609 5.646137 15.183055 108 92 66
8.902896 5.6047597 15.071787 0 0 0
8.894043 5.625212 15.126785 102 90 68
8.822581 5.606072 15.075315 0 0 0
8.76248 5.6738634 15.257614 0 0 0
6.239226 4.610434 12.397941 89 100 84
6.1450486 4.5656357 12.277473 30 50 25
6.153112 4.5967255 12.361077 33 56 28
6.142034 4.61378 12.406939 33 57 25
6.106686 4.612692 12.404012 32 53 22
6.0672064 4.608453 12.392612 56 74 48
6.0721817 4.6381216 12.472396 61 76 53
6.408698 5.4795885 14.735188 0 0 0
6.3674154 5.478717 14.732844 31 43 21
6.3567724 5.504365 14.801815 32 44 22
6.3357763 5.5213194 14.847407 27 36 15
6.290574 5.5172625 14.836497 60 67 49
4.8223066 6.3006873 16.943209 0 0 0
4.7711024 6.294223 16.925825 147 148 140
4.7241883 6.293347 16.92347 150 153 144
4.686125 6.30436 16.953085 145 151 141
4.659007 6.330466 17.023287 135 140 133
3.2329419 6.455592 17.359764 0 0 0
3.0008192 6.2680287 16.855387 0 0 0
2.9532356 6.264805 16.846718 108 113 107
2.9078696 6.266258 16.850624 109 111 106
2.863639 6.270244 16.861343 112 113 107
2.8208184 6.277498 16.88085 109 110 104
2.7768297 6.28235 16.893898 107 108 102
2.7319314 6.2852736 16.90176 106 109 102
2.6828406 6.2784867 16.883509 112 115 108
2.6373606 6.28006 16.88774 111 113 108
2.5911222 6.279851 16.887178 111 113 110
2.5518525 6.2968307 16.932838 100 105 101
2.51331 6.3162646 16.985098 165 169 168
1.095456 6.440409 17.318935 123 126 119
1.0475576 6.4369206 17.309555 142 143 135
0.9997284 6.433548 17.300486 148 148 138
0.953025 6.437445 17.310965 146 146 136
0.90465176 6.4298806 17.290623 148 148 140
0.85595626 6.419065 17.26154 43 44 36
0.8043849 6.3841634 17.167685 101 104 97
0.5853688 5.6312623 15.143055 36 44 31
0.54651034 5.6574087 15.213366 65 76 59
0.50835556 5.695746 15.316459 36 44 29
0.4685591 5.7209187 15.3841505 42 50 39
0.42730704 5.73153 15.412685 86 91 84
0.21797517 4.826982 12.980261 36 43 25
0.18232678 4.822359 12.967829 32 40 19
0.14700982 4.826386 12.978659 122 130 109
0.111618586 4.8297615 12.987735 38 42 25
0.07626226 4.838498 13.011229 35 41 27
0.04070489 4.8386006 13.011505 26 32 22
0.005183755 4.8741984 13.10723 30 35 29
-2.9172637 5.6825957 15.281096 157 162 166
-2.980407 5.7236576 15.391516 153 158 164
-3.020659 5.7202277 15.382293 145 152 158
-3.0531712 5.702436 15.334449 99 98 106
-3.067371 5.651387 15.197173 38 31 38
-3.0731485 5.586392 15.022394 83 77 81
-3.0805678 5.526056 14.860144 0 0 0
-3.1003718 5.489217 14.76108 0 0 0
-3.1233876 5.458937 14.679655 108 100 98
-3.1034398 5.222822 14.044717 113 110 105
-3.1327083 5.2076716 14.003975 107 104 97
-3.1946604 5.246562 14.108556 108 108 100
-3.2516098 5.2764077 14.188813 104 105 99
-3.2947438 5.2833953 14.207603 106 107 102
-3.2982578 5.227426 14.057097 105 106 100
-3.3091655 5.184329 13.941205 0 0 0
-1.8280557 2.7683191 7.4443007 127 115 91
-1.833812 2.7464707 7.3855476 130 114 89
-1.8429339 2.7300837 7.341481 132 115 87
-1.8515805 2.7133532 7.296491 133 116 88
-1.8629159 2.7008772 7.2629423 130 115 86
-1.8670743 2.678369 7.202415 130 113 85
-1.8735096 2.6595626 7.1518426 129 112 84
-1.8828056 2.6451633 7.1131215 130 115 86
-1.8919525 2.6308513 7.074635 131 116 87
-1.8943295 2.60751 7.011868 132 117 88
-1.8949324 2.5822186 6.9438567 131 115 89
-1.8910872 2.5514276 6.8610563 129 113 87
-1.880805 2.5126417 6.756757 131 114 88
-1.8778511 2.484305 6.6805563 127 110 84
-1.880311 2.463607 6.6248975 129 113 87
-1.8869008 2.4486632 6.5847125 128 112 86
-1.8909177 2.4306948 6.536393 129 113 87
-1.8988277 2.41802 6.5023093 129 113 87
-1.9061755 2.404871 6.4669504 131 115 89
-1.9149879 2.3937945 6.4371643 129 112 86
-1.9203289 2.3786197 6.3963575 128 111 85
-1.9288465 2.3676178 6.3667727 127 111 85
-1.9333446 2.351923 6.324568 128 112 86
-1.9392517 2.338205 6.2876787 129 115 88
-1.9435734 2.3228335 6.246343 127 113 86
-1.9475018 2.3072636 6.204474 128 113 84
-1.9532803 2.2941356 6.169171 131 114 84
-1.9590069 2.2811716 6.13431 125 108 78
-1.9619751 2.2652428 6.0914755 129 112 82
-1.9669122 2.2518363 6.0554237 128 111 81
-1.9704145 2.2370245 6.0155935 126 109 81
-1.974286 2.2228734 5.97754 128 111 83
-1.9758173 2.2063415 5.933084 128 111 85
-1.9766757 2.1893337 5.8873477 128 112 86
-1.9866556 2.1826212 5.8692975 128 113 84
-1.9930089 2.172064 5.840908 128 113 84
-2.0006723 2.1630914 5.8167796 133 116 86
-2.0019238 2.147382 5.7745357 132 117 86
-2.0087788 2.1378822 5.7489896 130 115 84
-2.012951 2.1256967 5.7162213 129 114 81
-2.0188904 2.1155508 5.6889377 127 112 79
-2.0241125 2.104814 5.6600657 130 115 84
-2.0290968 2.0939946 5.6309714 128 113 84
-2.034075 2.083332 5.6022983 130 115 86
-2.0347512 2.0684552 5.562293 129 114 85
-2.039947 2.0583599 5.5351453 131 116 85
-2.0426636 2.0459294 5.501719 132 117 86
-2.0478182 2.036105 5.4753 133 118 85
-2.0487816 2.0222862 5.4381394 132 117 84
-2.051007 2.009903 5.40484 128 113 80
-2.0533464 1.9978077 5.3723145 126 111 78
-2.0612557 1.991265 5.3547206 129 114 81
-2.0697258 1.9853524 5.338821 128 113 80
-2.0760953 1.9775221 5.3177643 126 111 78
-2.077357 1.9649688 5.284007 129 114 81
-2.0806515 1.9544984 5.2558513 128 112 79
-2.0867527 1.9467902 5.235123 128 112 79
-2.0927787 1.9391172 5.2144895 132 116 83
-2.097227 1.9300961 5.190231 129 113 80
-2.0970533 1.9169711 5.1549363 130 115 82
-2.1026006 1.9092159 5.134082 129 114 81
-2.107893 1.9013338 5.112886 130 115 82
-2.1172261 1.8971763 5.101706 128 113 80
-2.1179338 1.8853947 5.070024 128 113 80
-2.1204665 1.8753803 5.043094 128 113 80
-2.1215572 1.8642281 5.013105 128 113 80
-2.1272812 1.8572643 4.9943786 132 117 84
-2.127587 1.845689 4.9632516 131 116 83
-2.1362917 1.8415003 4.9519873 128 111 81
-2.1370914 1.830593 4.9226565 127 110 82
-2.1423254 1.8235966 4.9038424 127 110 82
-2.1391292 1.809556 4.866086 128 111 81
-2.1468737 1.8048868 4.85353 125 108 78
-2.156641 1.8019649 4.8456726 128 112 78
-2.1614912 1.7949954 4.826931 126 110 76
-2.1679778 1.7894613 4.812049 124 108 74
-2.1678414 1.77856 4.7827344 130 111 79
-2.1703858 1.7699759 4.7596507 131 112 80
-2.1697574 1.7589216 4.7299247 126 110 77
-2.1721563 1.7504382 4.707112 124 108 75
-2.1780696 1.74487 4.692138 110 94 60
-2.1874008 1.7420888 4.6846595 95 79 45
-2.1989076 1.7410628 4.6819005 94 76 40
-2.2134447 1.742434 4.685588 94 76 40
-2.2267437 1.7428206 4.6866274 92 74 36
-2.2409692 1.7439238 4.689594 97 77 40
-2.256314 1.7458802 4.694855 97 77 42
-2.2732701 1.7490546 4.703391 95 75 40
-2.2879174 1.7504267 4.707081 96 76 43
-2.3003466 1.750096 4.7061915 94 71 39
-2.311047 1.7484609 4.7017946 95 72 40
-2.321815 1.7468947 4.697583 94 71 39
-2.333102 1.7457343 4.694463 94 71 37
-2.34676 1.7463509 4.6961207 92 72 37
-2.3627968 1.7487214 4.702495 92 73 40
-2.375813 1.7488426 4.7028213 91 75 41
-2.3900971 1.7498909 4.7056403 93 74 41
-2.400577 1.7481576 4.700979 93 74 41
-2.41717 1.7508708 4.7082753 92 73 40
-2.430438 1.7511597 4.709052 92 73 40
-2.4465678 1.7534964 4.715336 92 73 40
-2.4580035 1.7524621 4.7125545 92 74 38
-2.4692786 1.7513247 4.7094955 93 75 39
-2.4833155 1.7521476 4.7117085 95 77 39
-2.4950945 1.7513772 4.709637 95 77 39
-2.512666 1.7546597 4.718464 95 75 38
-2.523731 1.7533883 4.715045 97 77 40
-2.5401304 1.755817 4.721576 93 73 38
-2.5536234 1.7562226 4.7226667 95 75 40
-2.5706415 1.759036 4.7302322 92 73 40
-2.5861046 1.7607626 4.734875 95 76 43
-2.5985994 1.7604611 4.7340646 96 77 45
-2.6153655 1.7630419 4.7410045 91 73 37
-2.6276488 1.7625902 4.73979 92 74 38
-2.6375432 1.7605484 4.734299 97 77 42
-2.6452029 1.757042 4.72487 99 79 42
-2.6575816 1.7566891 4.7239213 98 78 43
-2.6764715 1.7606229 4.7344995 94 74 39
-2.6915064 1.7619951 4.7381897 99 79 44
-2.7080028 1.7643063 4.744405 92 74 38
-2.7159848 1.7610747 4.7357144 97 79 43
-2.7286239 1.760879 4.7351885 94 76 40
-2.738036 1.7586125 4.7290936 96 77 44
-2.7552314 1.7613431 4.7364364 97 77 44
-2.7663033 1.7601519 4.733233 97 77 42
-2.7828987 1.7624698 4.739466 97 77 42
-2.8018441 1.7662479 4.7496257 96 76 41
-2.8219044 1.7706904 4.7615724 96 73 39
-2.8339937 1.7701135 4.7600207 99 79 46
-2.8442736 1.768417 4.755459 99 79 44
-2.8552608 1.7671736 4.7521152 95 77 39
-2.8681583 1.7671185 4.751967 98 80 44
-2.879068 1.7658446 4.7485414 94 76 40
-2.90154 1.771642 4.764131 96 78 40
-2.920525 1.7752681 4.773882 95 77 39
-2.9387674 1.7784123 4.782337 93 75 37
-2.9437099 1.7735159 4.7691703 91 73 37
-2.9536076 1.7716349 4.764112 96 76 41
-2.963889 1.7699996 4.7597146 98 78 45
-2.9799292 1.7718027 4.764563 96 76 41
-2.985256 1.7672478 4.7523146 94 74 39
-2.9940538 1.7647783 4.7456737 98 75 41
-3.0064435 1.7644379 4.7447586 95 72 38
-3.0303874 1.7708526 4.762008 94 76 38
-3.0454564 1.7720482 4.7652235 97 79 41
-3.061656 1.7738888 4.770173 95 77 39
-3.0719495 1.7723064 4.765918 93 78 39
-3.0887702 1.7744871 4.771782 93 78 39
-3.1016686 1.7744057 4.771563 94 79 40
-3.1184313 1.7765265 4.777266 94 76 38
-3.129156 1.7752041 4.77371 92 77 38
-3.1426942 1.775482 4.7744575 92 76 40
-3.156753 1.7760507 4.7759867 92 76 40
-3.1608703 1.7710444 4.762524 91 75 39
-3.1700163 1.7688854 4.756718 92 76 40
-3.1801531 1.7672944 4.75244 94 78 42
-3.1976025 1.7697636 4.75908 91 75 39
-3.2082176 1.7684457 4.755536 93 74 41
-3.2224774 1.7691394 4.7574015 92 72 39
-3.2394893 1.7713321 4.763298 96 76 43
-3.257813 1.774222 4.771069 96 76 43
-3.2796948 1.7790188 4.783968 96 76 43
-3.298638 1.7821898 4.7924953 91 72 39
9.307349 5.4956303 14.670512 46 38 17
9.283055 5.5049996 14.695523 48 40 19
9.316472 5.548822 14.812507 48 37 17
9.19071 5.4978075 14.676325 51 39 23
9.130285 5.4856014 14.643741 51 38 19
9.139348 5.5152206 14.722809 49 34 13
9.158549 5.551247 14.81898 111 97 71
9.126228 5.556226 14.832272 111 95 70
9.039329 5.527872 14.756581 112 97 66
9.036418 5.550857 14.817939 111 96 65
9.003798 5.555716 14.830911 110 93 63
9.026505 5.594914 14.935549 111 94 66
8.988869 5.5968943 14.940835 0 0 0
8.839038 5.5796385 14.894771 107 93 67
8.865435 5.622193 15.008369 100 88 66
8.835634 5.6293383 15.027444 0 0 0
8.817766 5.6441894 15.067088 0 0 0
6.387698 4.754835 12.692969 113 126 109
6.16391 4.6133056 12.315158 34 54 29
6.164069 4.638753 12.38309 31 54 26
6.143185 4.6485577 12.409264 33 57 25
6.115847 4.653561 12.42262 32 53 22
6.0634985 4.639483 12.385038 58 76 50
6.045147 4.651406 12.416866 58 73 50
6.407564 5.5188813 14.732581 0 0 0
6.368695 5.5200887 14.735804 0 0 0
6.3254237 5.5174723 14.728819 32 44 22
6.294568 5.525721 14.750839 29 38 17
6.265846 5.535961 14.778174 64 73 54
4.82325 6.3482327 16.946524 0 0 0
4.7702913 6.339401 16.922947 145 146 140
4.724972 6.3406477 16.926275 150 153 146
4.6885705 6.3540053 16.961933 147 152 145
4.662481 6.381744 17.03598 137 142 135
3.2120004 6.557134 17.504183 0 0 0
3.002781 6.31822 16.866405 136 142 138
2.954449 6.3134384 16.85364 108 113 109
2.9088466 6.3144298 16.856287 108 113 107
2.863666 6.3163834 16.861502 110 113 106
2.8206859 6.323334 16.880056 113 114 108
2.7768762 6.3286247 16.89418 102 103 97
2.7322357 6.3321695 16.903643 107 108 102
2.684357 6.328202 16.893051 110 111 105
2.6382864 6.3284326 16.893667 111 112 107
2.59051 6.324507 16.883188 109 111 108
2.5479999 6.33353 16.907274 103 107 106
2.5086968 6.3510046 16.953922 173 177 176
1.1429688 6.488774 17.321695 0 0 0
1.0950457 6.4853096 17.312449 124 126 121
1.0481102 6.487647 17.318687 143 144 138
0.9996192 6.48012 17.298595 148 149 141
0.9528717 6.483711 17.30818 143 145 134
0.9040497 6.472823 17.279116 144 146 135
0.85714996 6.475257 17.285612 43 44 36
0.8067006 6.449595 17.217108 64 67 58
0.58218163 5.6417603 15.060604 0 0 0
0.5466676 5.7006254 15.217744 0 0 0
0.50859463 5.740302 15.323661 31 37 23
0.46839425 5.7609344 15.378738 41 47 37
0.42694232 5.7687235 15.39953 78 83 76
0.25466436 4.8857765 13.042516 35 43 28
0.21824126 4.8683915 12.996106 43 52 35
0.18234994 4.8584156 12.969476 34 43 22
0.14701359 4.8619804 12.978992 32 40 19
0.11150179 4.860164 12.974144 118 122 105
0.07611634 4.86473 12.986332 24 28 14
0.040674616 4.870535 13.001828 33 36 27
0.00515512 4.882896 13.034826 28 30 25
-2.982774 5.7703004 15.40374 150 157 163
-3.028415 5.777061 15.421788 146 155 160
-3.061738 5.7604613 15.377476 123 124 129
-3.075151 5.707359 15.235719 106 99 106
-3.0868247 5.65249 15.089248 33 27 31
-3.086809 5.5779448 14.89025 0 0 0
-3.0876353 5.367172 14.327594 108 103 97
-3.0583293 5.2496567 14.013888 113 108 102
-3.0905092 5.239284 13.986199 106 101 95
-3.160011 5.291663 14.126024 107 104 99
-3.21433 5.31766 14.195422 108 107 102
-3.2654104 5.337743 14.249034 105 108 101
-3.3001964 5.331031 14.231116 106 109 102
-3.3225768 5.304669 14.160744 105 106 100
-3.3297207 5.2548685 14.027802 0 0 0
-1.822264 2.7798283 7.420715 126 114 92
-1.8337768 2.7666016 7.385406 128 114 88
-1.842328 2.7492428 7.3390675 129 113 87
-1.850875 2.7322524 7.293711 130 114 88
-1.8649706 2.7237267 7.2709527 132 116 90
-1.8703852 2.7028368 7.215187 131 114 86
-1.8809922 2.6898077 7.180406 134 117 87
-1.8873823 2.6710799 7.130412 134 117 87
-1.8976694 2.6581933 7.096012 134 117 89
-1.8961343 2.6291752 7.018548 131 116 87
-1.8997266 2.6077764 6.961425 132 116 90
-1.8958068 2.5765924 6.8781796 129 113 88
-1.8852811 2.5371308 6.772837 129 113 88
-1.8834349 2.5100033 6.700421 126 110 85
-1.8832042 2.4855306 6.6350913 130 114 89
-1.8896695 2.470278 6.5943747 127 111 86
-1.891597 2.4494379 6.5387416 127 111 86
-1.9021821 2.440093 6.5137963 130 114 88
-1.9071352 2.4237642 6.4702067 129 113 87
-1.9159456 2.4125926 6.440384 126 110 84
-1.920206 2.395947 6.3959484 129 113 87
-1.9297378 2.3861196 6.3697147 126 110 84
-1.9335729 2.369487 6.3253145 127 113 87
-1.9370248 2.352684 6.280459 129 115 89
-1.9418887 2.3378758 6.2409286 130 116 89
-1.9459586 2.3223782 6.199558 127 111 85
-1.9529434 2.3105967 6.168107 127 110 80
-1.9597523 2.2988105 6.136644 130 113 83
-1.963366 2.283508 6.095794 128 113 82
-1.9660324 2.2673705 6.0527153 131 114 86
-1.9685757 2.2513616 6.0099797 128 111 83
-1.9746077 2.2395744 5.978514 127 110 82
-1.9794459 2.2266378 5.94398 132 115 89
-1.9807653 2.209986 5.899528 132 116 90
-1.9883019 2.2004833 5.8741612 128 112 86
-1.9912059 2.1860473 5.835624 129 113 87
-2.0007544 2.1790774 5.817018 130 113 85
-2.0069704 2.1686163 5.7890925 131 114 84
-2.0162706 2.1616254 5.7704306 131 114 84
-2.0215936 2.1505122 5.740764 130 115 82
-2.0247562 2.13729 5.705467 128 113 80
-2.0294962 2.1259217 5.67512 129 114 83
-2.030531 2.1108744 5.634951 128 113 84
-2.03409 2.0986578 5.6023393 126 111 82
-2.0348442 2.0837517 5.562547 128 113 84
-2.0400896 2.0736315 5.535532 128 113 84
-2.0433676 2.0616755 5.5036154 129 114 83
-2.0494137 2.0526664 5.4795656 129 114 83
-2.0519154 2.040264 5.4464574 130 113 83
-2.0553212 2.0289323 5.4162083 129 112 82
-2.059332 2.018356 5.3879747 130 114 81
-2.0672643 2.0117462 5.37033 132 116 83
-2.075974 2.0059805 5.3549385 131 114 84
-2.0806043 1.9963813 5.3293133 132 115 85
-2.084395 1.9861155 5.301909 127 110 80
-2.0850172 1.9729934 5.2668796 129 112 82
-2.0894427 1.9636253 5.241872 128 112 79
-2.0939374 1.9544494 5.2173767 132 116 83
-2.1002493 1.9470824 5.1977105 132 116 83
-2.1009958 1.9346893 5.1646276 130 115 82
-2.1067293 1.9270234 5.1441636 130 115 82
-2.1122825 1.9192953 5.1235332 127 112 81
-2.1210454 1.9145662 5.110909 127 112 81
-2.119025 1.900229 5.072636 126 111 80
-2.1221435 1.8906567 5.047083 127 112 81
-2.1214314 1.8778169 5.0128074 128 113 82
-2.132392 1.8754082 5.006377 129 114 83
-2.1330473 1.8640245 4.975989 128 113 82
-2.1419768 1.8599701 4.9651656 129 114 83
-2.1382356 1.8450333 4.925292 128 111 81
-2.1468825 1.8409058 4.9142737 130 113 83
-2.147647 1.8301128 4.885462 130 114 81
-2.1546357 1.8247243 4.8710775 128 112 79
-2.159811 1.8178759 4.8527956 127 111 77
-2.1657972 1.8117893 4.8365474 129 113 79
-2.1714838 1.8055272 4.819831 128 112 78
-2.171404 1.794575 4.790594 129 113 80
-2.1737328 1.7857329 4.76699 128 112 79
-2.1773753 1.7780689 4.7465315 127 111 78
-2.1819396 1.7712438 4.728312 127 108 76
-2.183686 1.7622253 4.704237 111 92 59
-2.1901858 1.7571259 4.690624 97 78 45
-2.199842 1.7546031 4.68389 96 78 42
-2.2150986 1.7565509 4.6890893 97 77 42
-2.2276082 1.7563102 4.688447 95 72 38
-2.2406266 1.7564712 4.6888766 95 72 38
-2.2530243 1.7561467 4.68801 95 75 38
-2.2710323 1.7601739 4.698761 96 76 39
-2.2890794 1.7641863 4.7094717 97 77 42
-2.304563 1.7661887 4.7148175 95 75 42
-2.315743 1.7648892 4.7113485 90 70 37
-2.3253057 1.7623783 4.7046456 90 70 37
-2.3359485 1.7607093 4.70019 87 67 30
-2.349949 1.7615752 4.702502 93 73 36
-2.3661969 1.7641076 4.709262 92 74 36
-2.3785002 1.7636875 4.7081404 90 72 34
-2.3926053 1.7646008 4.7105784 92 74 38
-2.4047248 1.7640476 4.7091017 91 73 37
-2.4208813 1.7664461 4.7155046 92 73 40
-2.4323204 1.7653952 4.712699 91 73 37
-2.4464028 1.7662638 4.715018 93 75 39
-2.459076 1.7661113 4.7146106 89 73 37
-2.4696484 1.7644594 4.710201 91 75 39
-2.4826324 1.7645386 4.7104125 92 77 38
-2.4943068 1.7636912 4.7081504 91 76 37
-2.51325 1.7679657 4.719561 92 74 36
-2.5254776 1.7674965 4.7183084 92 74 36
-2.5397854 1.7684803 4.720935 93 75 39
-2.5523942 1.7682774 4.720393 90 72 36
-2.569711 1.7713218 4.72852 94 75 42
-2.5877314 1.7748182 4.7378535 92 73 40
-2.601978 1.7757045 4.7402196 92 73 40
-2.6173532 1.7773482 4.7446074 94 75 42
-2.6316192 1.7782263 4.7469516 91 73 37
-2.641409 1.776086 4.741238 91 73 37
-2.650371 1.7734127 4.734102 97 77 40
-2.6565664 1.7689232 4.722117 95 75 38
-2.6727073 1.7710674 4.727841 96 76 41
-2.6914067 1.7748784 4.738014 96 76 41
-2.7118855 1.7798203 4.751207 95 75 40
-2.7226222 1.7783523 4.7472878 93 73 38
-2.7280204 1.7734276 4.7341413 95 75 40
-2.7375383 1.7712147 4.7282343 94 74 39
-2.7532253 1.7729955 4.732988 91 73 37
-2.770527 1.7757945 4.74046 93 73 38
-2.7829146 1.7754325 4.7394934 92 72 37
-2.798918 1.7773699 4.744665 94 74 39
-2.8166037 1.7803527 4.752628 95 75 38
-2.8362074 1.784515 4.763739 90 70 35
-2.8488824 1.7842997 4.7631645 94 76 40
-2.8636792 1.7854092 4.766126 92 74 38
-2.8745916 1.7840979 4.7626257 96 78 42
-2.8837082 1.7816888 4.7561946 93 75 37
-2.896146 1.7813442 4.755275 92 74 36
-2.909909 1.781814 4.756529 94 76 38
-2.9306145 1.7865118 4.7690697 94 76 40
-2.9414546 1.7851809 4.7655168 93 75 39
-2.9570837 1.7867551 4.769719 95 75 40
-2.9662204 1.78441 4.7634587 94 74 39
-2.9822066 1.7861876 4.768204 97 74 40
-2.9905698 1.7834041 4.7607737 98 75 41
-3.0020342 1.782486 4.7583227 97 74 40
-3.008777 1.7787844 4.748441 96 76 41
-3.0317411 1.7846634 4.7641354 94 76 38
-3.0461266 1.7854638 4.766272 93 75 37
-3.0626404 1.7874998 4.771707 93 75 37
-3.0743732 1.7867397 4.769678 91 76 37
-3.0925694 1.7897265 4.7776513 92 77 38
-3.1063223 1.7901278 4.7787223 91 76 37
-3.1176326 1.7891239 4.7760425 90 75 36
-3.1212344 1.783723 4.761625 95 80 41
-3.1297317 1.7811531 4.7547646 93 77 41
-3.1423855 1.7809602 4.7542496 94 78 42
-3.1485407 1.7771008 4.743947 95 79 43
-3.1622422 1.777515 4.745053 91 75 39
-3.1730616 1.7763124 4.7418423 94 78 44
-3.1937807 1.7806388 4.7533917 96 77 44
-3.2057996 1.7800994 4.7519517 95 75 42
-3.2234495 1.7826784 4.7588363 95 75 42
-3.241373 1.7853874 4.766068 94 71 37
-3.261509 1.7892884 4.7764816 96 73 39
-3.2788525 1.7916325 4.782739 95 75 40
-3.2982821 1.7950933 4.791978 97 77 42
9.390477 5.585165 14.801541 49 38 18
9.399505 5.614721 14.879868 47 36 16
9.30649 5.5833144 14.796637 46 35 15
9.185593 5.534833 14.668153 51 40 22
9.132265 5.526819 14.646915 51 38 19
9.122286 5.545085 14.695322 53 38 17
9.124592 5.571013 14.764036 116 100 75
9.082635 5.570027 14.761422 112 96 71
9.001019 5.5446014 14.694041 113 98 69
8.982237 5.5578275 14.729092 112 95 67
9.016416 5.60409 14.851695 114 97 69
8.97781 5.605328 14.854976 0 0 0
9.034561 5.6663833 15.016782 0 0 0
8.963438 5.647429 14.96655 106 92 65
8.705285 5.5099225 14.602137 90 76 50
8.883848 5.6749716 15.039542 95 84 62
8.829303 5.666343 15.016676 0 0 0
8.718496 5.6213603 14.897464 0 0 0
8.759809 5.7012434 15.109166 0 0 0
6.3742013 4.779403 12.666149 93 106 89
6.1804457 4.6594276 12.348195 35 53 29
6.1495304 4.661574 12.353883 34 54 27
6.127104 4.6702137 12.37678 32 56 24
6.1032405 4.6778483 12.397013 33 53 25
6.0665793 4.6757045 12.391332 52 70 46
6.0582414 4.695489 12.443763 61 76 53
6.0993752 4.7540565 12.598976 119 128 111
5.959571 4.8937182 12.969101 0 0 0
6.361455 5.5540395 14.719053 0 0 0
6.3079743 5.5423927 14.688188 30 42 18
6.2728324 5.5468135 14.6999035 38 47 26
6.2574754 5.568899 14.758433 0 0 0
4.8136106 6.381766 16.912655 0 0 0
4.7642527 6.3775663 16.901525 145 146 140
4.7214136 6.3820953 16.913528 150 151 143
4.6844654 6.394757 16.947083 149 152 145
4.656059 6.4194465 17.012514 134 139 132
3.0683818 6.4050336 16.974318 0 0 0
3.0000727 6.358575 16.851194 0 0 0
2.9515457 6.353248 16.837078 105 112 105
2.9068737 6.356182 16.844854 110 115 109
2.8613102 6.35723 16.847631 109 112 105
2.8171759 6.3615394 16.85905 107 108 102
2.773205 6.366367 16.871845 99 100 94
2.7300205 6.373194 16.889938 107 108 102
2.6846232 6.3750014 16.894728 112 113 107
2.6378663 6.373586 16.890978 113 116 109
2.5887408 6.3662963 16.871658 108 110 105
2.5451188 6.372522 16.888157 101 106 102
2.5094516 6.399263 16.959024 169 173 174
1.0948724 6.5315886 17.309708 123 125 122
1.0469794 6.527926 17.300001 137 140 133
0.9989937 6.523311 17.287771 144 145 137
0.9518048 6.5236998 17.288801 138 139 131
0.90388376 6.518848 17.275944 143 144 136
0.857554 6.525571 17.29376 49 50 42
0.8123565 6.5421963 17.33782 69 70 62
0.50779676 5.7731094 15.299623 29 37 22
0.46772757 5.794703 15.356849 53 59 49
0.4262477 5.8013544 15.3744755 23 26 19
0.25531548 4.9340034 13.075863 37 45 30
0.21815148 4.9018908 12.99076 39 50 33
0.182212 4.8901577 12.959665 37 46 25
0.14677994 4.889667 12.9583645 40 50 26
0.111237586 4.8840213 12.943402 78 82 65
0.07598732 4.8919144 12.96432 85 89 75
0.040606815 4.897889 12.980155 21 22 14
0.0052266945 4.9868083 13.215804 30 32 27
-2.9451666 5.8212705 15.427256 158 168 170
-2.9827852 5.812419 15.403798 152 159 165
-3.0236928 5.810134 15.397742 149 156 162
-3.0488358 5.7780347 15.3126745 125 125 133
-3.06488 5.729795 15.184832 144 142 147
-3.0776136 5.6767373 15.044221 41 35 39
-3.0933955 5.630627 14.922022 0 0 0
-3.0285475 5.3028674 14.053409 123 110 104
-3.045525 5.265816 13.955217 63 52 46
-3.1120796 5.3143415 14.083817 73 64 57
-3.1759682 5.3571844 14.197357 113 105 102
-3.2289743 5.3808584 14.260097 114 109 105
-3.2649958 5.3760014 14.247225 108 105 100
-3.285612 5.3461924 14.168226 108 105 100
-3.312859 5.327741 14.119328 0 0 0
-3.3336492 5.29945 14.044353 0 0 0
-1.8184508 2.794249 7.4051867 128 116 94
-1.8351232 2.788831 7.390828 133 117 94
-1.845265 2.7737145 7.3507676 132 116 91
-1.8522829 2.7542784 7.2992587 130 114 89
-1.8599755 2.7362492 7.2514787 132 115 89
-1.8692889 2.7209594 7.2109585 130 113 83
-1.8795048 2.7072885 7.1747284 131 114 84
-1.8859007 2.6884544 7.124815 133 116 86
-1.8929164 2.6708798 7.0782394 134 117 89
-1.8942856 2.645774 7.011705 128 112 86
-1.9028234 2.6310835 6.972773 128 112 86
-1.8974915 2.597696 6.8842916 129 113 87
-1.885075 2.5553608 6.7720966 129 113 88
-1.8763778 2.5188415 6.675315 127 111 86
