ply
format ascii 1.0
element vertex 1192
property float x
property float y
property float z
property uchar red
property uchar green
property uchar blue
end_header
2.07897 2.196324 5.9498715 146 130 105
2.0906212 2.1914928 5.9367833 141 127 101
2.09486 2.1790254 5.9030094 140 126 100
2.0975637 2.165164 5.8654585 141 127 101
2.0989852 2.1501994 5.824919 142 128 102
2.1051702 2.1403034 5.7981105 141 127 101
2.110872 2.1300673 5.770381 145 130 107
2.1127071 2.11611 5.7325706 144 130 104
2.1180196 2.105816 5.7046833 143 129 102
2.1267385 2.0990338 5.686311 144 130 103
2.1377716 2.0946178 5.674348 146 132 105
2.1390653 2.0807915 5.636892 143 129 103
2.1416037 2.0683649 5.603228 146 130 104
2.1454313 2.0573509 5.5733914 146 131 102
2.1567655 2.0536401 5.5633388 144 129 100
2.1642263 2.0463188 5.543505 144 130 101
2.1679888 2.0356266 5.51454 141 127 100
2.173179 2.0264134 5.489581 145 131 104
2.1781259 2.0171015 5.464355 145 130 101
2.1817112 2.0066638 5.436079 143 128 99
2.180636 1.9921095 5.3966517 146 131 102
2.1863925 1.9839504 5.3745484 144 129 100
2.1942263 1.9777721 5.3578115 144 127 101
2.2019677 1.9715934 5.341073 146 130 104
2.2025604 1.9591372 5.307329 142 126 101
2.2076676 1.9508332 5.2848334 145 129 104
2.2105758 1.9407066 5.2574005 143 127 102
2.2193987 1.9358702 5.2442985 147 129 105
2.222225 1.9258986 5.217285 145 127 103
2.2269928 1.9177262 5.195146 144 126 102
2.2290165 1.907309 5.166926 143 125 101
2.2298882 1.8960437 5.136408 143 127 102
2.2361145 1.8894436 5.1185284 146 130 105
2.241062 1.881852 5.0979624 143 127 101
2.250393 1.8780122 5.08756 137 121 95
2.2538075 1.8693124 5.0639925 137 118 88
2.2596176 1.8626935 5.046062 136 115 86
2.268606 1.858759 5.0354033 122 102 69
2.2796674 1.8565603 5.029447 110 91 58
2.2916565 1.855139 5.0255966 112 92 59
2.3054569 1.8551922 5.0257406 109 89 56
2.318371 1.8545358 5.0239625 106 87 54
2.333684 1.8557945 5.0273724 110 90 57
2.3471649 1.8555903 5.026819 107 87 52
2.3632624 1.857445 5.0318437 107 87 52
2.3746104 1.855567 5.026756 107 87 50
2.3866274 1.8542303 5.0231347 105 87 49
2.399086 1.8532498 5.0204787 106 91 52
2.4134886 1.8537738 5.0218983 105 87 51
2.4270008 1.8536118 5.0214596 105 86 53
2.4412029 1.8539755 5.0224447 106 85 54
2.4563112 1.8550197 5.0252733 107 86 55
2.4708142 1.8555975 5.026839 107 86 55
2.4837756 1.8550178 5.025268 105 84 53
2.4965408 1.8542986 5.0233197 105 85 50
2.5091958 1.8535057 5.021172 107 87 52
2.5243237 1.8545384 5.0239697 106 86 51
2.5411406 1.8567941 5.0300803 110 92 56
2.556813 1.8581936 5.0338717 108 88 53
2.5647683 1.8539999 5.0225105 107 87 50
2.5765173 1.8525783 5.0186596 109 89 52
2.5953593 1.8562449 5.0285926 104 84 47
2.615993 1.8611476 5.041874 105 85 48
2.634149 1.8642453 5.050266 110 90 53
2.6435268 1.8611307 5.041828 106 86 49
2.6561909 1.86035 5.0397134 103 83 46
2.6678116 1.8588504 5.0356507 105 87 49
2.6827366 1.8596567 5.037835 107 89 51
2.6995072 1.8617276 5.043445 107 89 51
2.7117727 1.8606861 5.0406237 103 85 47
2.7272038 1.8618165 5.043686 104 86 50
2.7413554 1.8620663 5.0443625 104 86 50
2.7511775 1.8593874 5.0371056 102 82 47
2.7602813 1.8562523 5.0286126 105 85 50
2.774541 1.8565983 5.0295496 107 87 50
2.7956474 1.8614998 5.042828 107 85 48
2.8152034 1.8653259 5.053193 104 82 45
2.8260188 1.8633516 5.0478444 106 86 49
2.8351688 1.8603036 5.0395875 107 87 50
2.8461168 1.8584591 5.0345907 106 86 51
2.8622377 1.8599939 5.0387487 105 85 50
2.8787951 1.8617966 5.043632 102 79 45
2.8929558 1.8620391 5.044289 102 79 45
2.906812 1.8620844 5.0444117 107 84 50
2.9227343 1.8634466 5.048102 106 83 51
2.9424667 1.8672137 5.058307 103 82 51
2.9557827 1.866893 5.0574384 104 83 52
2.9688172 1.8663985 5.0560985 100 80 47
2.9790673 1.8641658 5.0500503 103 83 50
2.9940763 1.8649181 5.0520883 103 83 50
3.0115902 1.8672166 5.058315 103 85 49
3.026761 1.8680478 5.060567 100 80 47
3.0422306 1.8690553 5.063296 100 81 48
3.0513103 1.8661455 5.0554132 97 78 45
3.0676198 1.8676636 5.059526 99 79 46
3.0769477 1.8649367 5.052139 103 83 48
3.0904603 1.8647592 5.0516577 102 79 45
3.1049862 1.8651918 5.0528297 104 81 47
3.1271093 1.8701642 5.0663 100 77 43
3.1384768 1.8686886 5.0623026 105 85 52
3.1534734 1.8693774 5.0641685 104 84 51
3.1614947 1.8659432 5.0548654 103 85 49
3.1759725 1.8663331 5.0559216 100 80 47
3.1821485 1.8618622 5.04381 102 82 49
3.1937518 1.8605918 5.040368 100 81 48
3.2132728 1.863925 5.049398 99 80 47
3.2286437 1.8648325 5.0518565 104 85 52
3.2553728 1.872265 5.071991 100 82 46
3.2655878 1.8701768 5.0663342 100 82 46
3.2782068 1.8694774 5.0644393 95 79 45
3.2709315 1.857486 5.031955 97 81 48
3.279199 1.8543847 5.023553 95 76 43
3.3071535 1.8623958 5.045255 100 81 48
3.3464165 1.8766822 5.083957 101 83 47
3.356687 1.8746586 5.0784755 102 84 48
3.3440096 1.8598883 5.0384626 100 80 47
3.3671618 1.8499132 5.01144 101 83 47
-7.259177 4.862417 13.07555 121 121 113
-7.247509 4.8786173 13.119113 124 124 112
-7.1749887 4.8538117 13.052409 121 121 113
-7.1223173 4.8422537 13.021328 123 122 117
-7.0142393 4.792721 12.888129 125 127 116
-7.0245533 4.823992 12.97222 125 127 116
-7.059989 4.8729196 13.103791 0 0 0
-7.1482553 4.9589963 13.335261 126 130 116
-7.023286 4.8972683 13.169268 124 128 114
-6.993597 4.9016848 13.181145 122 124 113
-6.998533 4.9305406 13.25874 130 131 123
-6.946506 4.919357 13.228666 128 129 121
-6.9517307 4.9488125 13.307876 134 135 129
-6.93211 4.960798 13.340105 138 139 133
-6.8402762 4.9209595 13.232976 139 140 134
-6.8061256 4.9224157 13.236892 142 143 135
-6.8123045 4.9532113 13.319704 142 142 134
-6.784574 4.9595494 13.336748 143 143 135
-6.707226 4.9294896 13.255915 148 148 140
-6.6835904 4.938794 13.280935 146 145 140
-6.6393867 4.9329185 13.265135 151 152 146
-6.62449 4.948872 13.308036 144 145 137
-6.6670704 5.0081778 13.467515 147 149 138
-6.621358 5.0014496 13.449422 144 146 135
-6.4961267 4.9342465 13.268706 147 150 141
-6.469356 4.9414964 13.288201 145 148 141
-6.3963895 4.913343 13.212494 142 145 138
-6.418568 4.9583693 13.333575 144 147 140
-6.3865557 4.9618087 13.342824 142 143 137
-6.36863 4.9762945 13.381778 143 144 138
-6.356112 4.9951973 13.43261 143 144 138
-6.345423 5.0157657 13.48792 144 145 137
-6.3144956 5.020483 13.500606 139 142 133
-6.2590556 5.0056524 13.460725 139 140 132
-6.2200055 5.0038314 13.455828 131 133 122
-6.15243 4.9789047 13.388797 128 128 118
-6.1342316 4.9938774 13.42906 128 125 116
-6.105353 5.000283 13.446285 132 132 124
-5.844777 4.8451967 13.029242 126 129 120
-5.698587 4.752964 12.781219 129 137 126
-5.644849 4.7371798 12.738773 141 148 140
-5.601249 4.7297606 12.7188225 149 156 148
-5.619431 4.7747436 12.839787 152 159 152
-5.5927105 4.7819 12.85903 160 167 160
-5.527125 4.7557054 12.78859 162 167 163
-5.3524184 4.7248907 12.705727 150 154 155
-5.3418813 4.746381 12.763515 148 152 153
-5.3751125 4.8072977 12.927328 151 155 158
-5.2851353 4.821904 12.966606 0 0 0
-5.2297816 4.80361 12.917411 0 0 0
-5.2708464 4.87423 13.107316 0 0 0
-5.1513686 4.9313097 13.260809 0 0 0
-5.153062 4.96788 13.35915 159 163 162
-4.901628 4.828102 12.983273 0 0 0
-4.8452806 4.8073997 12.927602 160 165 169
-4.7964697 4.7939253 12.891368 158 163 167
-4.775945 4.8087325 12.931186 159 164 168
-4.7396145 4.807727 12.928482 155 163 166
-4.7678328 4.9095488 13.2022915 155 160 164
-4.6908474 4.9045043 13.188726 162 167 171
-4.60686 4.8539886 13.052884 160 165 169
-4.5484343 4.829827 12.987911 165 170 173
-4.5235996 4.841235 13.018589 164 169 172
-4.5194726 4.8751616 13.109821 162 166 169
-4.2672086 4.8329196 12.996227 164 169 173
-4.2204375 4.8200665 12.961664 161 166 170
-4.120303 4.8272533 12.98099 162 167 171
-3.7117205 4.8496275 13.041157 0 0 0
-3.559866 4.8369985 13.007196 0 0 0
-3.5458395 4.866535 13.086623 157 162 166
-3.525556 4.8879986 13.1443405 0 0 0
-3.328363 4.91508 13.217166 167 172 175
-3.2912686 4.9136267 13.213258 0 0 0
-3.227849 4.872404 13.102406 176 181 185
-3.1750996 4.8465433 13.032864 174 179 183
-3.134964 4.839568 13.014107 175 180 184
-3.0880532 4.877828 13.116991 176 181 184
-3.0179517 4.880404 13.123919 169 174 178
-2.516533 4.8817782 13.127613 0 0 0
-2.5024097 4.924587 13.24273 156 162 162
-2.4664297 4.925008 13.243862 156 162 160
-2.4227898 4.9099183 13.203285 150 156 154
-2.3757355 4.887348 13.142592 149 153 152
-1.9599034 4.925484 13.245144 0 0 0
-1.910083 4.8906045 13.151348 0 0 0
-1.6318563 4.9186435 13.226748 136 139 132
-0.07941589 5.0385814 13.5492735 0 0 0
-0.042365737 5.036026 13.542402 0 0 0
1.9241331 2.8503704 7.6649446 150 132 112
1.9321975 2.8314912 7.6141768 152 134 114
1.939392 2.8117533 7.5610995 152 135 117
1.9406201 2.7838724 7.486125 174 157 139
1.9509127 2.769441 7.447317 198 181 163
1.9646087 2.760089 7.4221687 116 98 78
1.9768411 2.7488928 7.392061 126 106 82
1.9867455 2.7347188 7.3539457 126 108 84
1.9951032 2.7187212 7.3109264 132 114 90
2.0038779 2.703603 7.2702723 134 118 93
2.0033698 2.6763809 7.1970687 137 121 98
1.9965001 2.6412716 7.1026564 135 119 96
1.9928956 2.611117 7.021567 139 122 102
1.9936236 2.5871594 6.957143 138 122 99
1.993299 2.5623016 6.890298 141 125 102
1.9862629 2.5293624 6.801721 141 125 102
1.990695 2.5115027 6.753694 137 119 99
1.9943464 2.492995 6.703925 138 120 100
1.9966594 2.4731665 6.6506042 139 122 104
1.9963183 2.4504383 6.589485 139 124 105
1.9965662 2.4288323 6.531385 140 125 104
1.9986885 2.4098697 6.480392 140 125 102
2.003749 2.3947515 6.439738 139 121 99
2.0083618 2.3793664 6.3983655 137 121 96
2.0195615 2.371983 6.378511 136 120 95
2.0208607 2.3531973 6.3279943 139 125 98
2.0193703 2.3315098 6.2696743 143 129 102
2.02445 2.317709 6.2325625 143 129 102
2.033469 2.3086107 6.208096 143 129 103
2.041517 2.29857 6.1810956 142 128 102
2.0428655 2.2812123 6.1344194 143 128 105
2.0454583 2.2655158 6.09221 142 128 102
2.0575435 2.2605016 6.078726 143 127 102
2.061744 2.2469745 6.04235 147 131 106
2.0676072 2.23546 6.0113864 145 129 104
2.0681214 2.2183895 5.965482 145 129 104
2.0743434 2.2076607 5.936631 142 126 101
2.0857759 2.2026007 5.923024 140 126 100
2.0909288 2.1910381 5.8919315 142 128 102
2.0986936 2.1823688 5.8686185 143 129 103
2.1004903 2.1676717 5.8290963 143 129 103
2.1073453 2.1583767 5.804101 140 125 102
2.1127443 2.1477404 5.775499 142 127 104
2.1133149 2.1323898 5.7342196 143 127 102
2.117709 2.121095 5.7038465 145 131 105
2.123022 2.1108787 5.676374 145 131 104
2.132849 2.105266 5.6612816 143 127 101
2.1360397 2.0932314 5.628919 142 126 100
2.1384284 2.0805886 5.5949206 142 126 100
2.143618 2.0708308 5.5686812 144 129 100
2.1523132 2.0645733 5.551854 149 134 105
2.1590955 2.0565815 5.530363 145 131 104
2.161256 2.044329 5.4974146 142 128 102
2.1628683 2.0317302 5.463536 145 129 103
2.166712 2.0213866 5.4357204 140 124 98
2.17114 2.0117247 5.409739 144 129 100
2.1763322 2.0028975 5.386001 141 124 96
2.1806414 1.9933813 5.360411 146 129 101
2.1865485 1.9854429 5.339064 142 125 97
2.193728 1.9787575 5.3210864 146 130 104
2.199096 1.9705371 5.2989807 146 130 104
2.20536 1.9632218 5.2793093 145 129 103
2.2087586 1.9534675 5.253079 141 125 99
2.214552 1.9459434 5.232846 142 126 101
2.2170022 1.935597 5.2050233 143 125 101
2.2204487 1.9262468 5.1798797 143 125 101
2.2225986 1.9158974 5.152049 141 123 99
2.22812 1.9085664 5.132335 139 123 98
2.2358987 1.9032483 5.1180344 142 126 101
2.2422907 1.8968236 5.1007576 144 128 102
2.2440207 1.8865587 5.073154 143 128 99
2.246773 1.877274 5.048187 141 124 96
2.2533402 1.871271 5.032044 135 115 88
2.2647996 1.8693786 5.026955 130 106 78
2.2744055 1.8659884 5.0178385 112 91 60
2.2860634 1.8643122 5.013331 110 89 58
2.3003674 1.864801 5.0146456 108 88 55
2.3126266 1.8636364 5.0115137 104 88 54
2.3281271 1.8650823 5.015402 107 88 55
2.3425744 1.865672 5.016988 107 87 52
2.359066 1.8678739 5.0229087 110 90 55
2.3715403 1.8668878 5.020257 108 88 51
2.384199 1.8660572 5.0180235 105 85 48
2.398202 1.8662822 5.0186286 107 89 51
2.4116428 1.8660698 5.0180573 105 87 51
2.4263341 1.866822 5.02008 107 87 54
2.4389274 1.8659606 5.0177636 105 84 53
2.4509277 1.8646576 5.01426 106 86 53
2.464018 1.8641937 5.0130124 105 85 52
2.4792492 1.8653458 5.0161104 107 87 52
2.4949424 1.8668307 5.0201035 107 87 52
2.508501 1.8667111 5.019782 108 88 53
2.5250332 1.8687936 5.025382 107 89 53
2.5409663 1.8704123 5.029735 108 88 53
2.5547583 1.8704462 5.029826 106 86 49
2.5640495 1.8672022 5.0211024 106 86 49
2.5772977 1.8668591 5.0201797 99 79 42
2.5941644 1.8691264 5.026277 109 89 52
2.6100323 1.8706542 5.0303855 103 83 46
2.6257794 1.87208 5.0342193 106 86 49
2.6388965 1.8716254 5.032997 109 89 54
2.65308 1.871928 5.0338106 105 85 50
2.6631 1.869305 5.0267572 105 87 49
2.6769423 1.8693782 5.026954 106 88 50
2.6983724 1.8747222 5.0413246 105 87 49
2.7168064 1.8779411 5.0499806 103 83 46
2.730327 1.8777483 5.049462 101 81 46
2.7397218 1.874734 5.0413566 105 85 50
2.747123 1.8703927 5.029682 105 85 50
2.755926 1.8670443 5.020678 104 84 47
2.7658324 1.864473 5.0137634 107 85 48
2.7863898 1.8690715 5.0261292 107 85 48
2.8076231 1.8740759 5.0395865 113 91 54
2.819952 1.8731169 5.037008 105 85 50
2.8276203 1.8690865 5.02617 105 85 50
2.842547 1.8698698 5.028276 107 87 54
2.8630226 1.8742782 5.0401306 105 85 52
2.878283 1.8752465 5.0427346 105 85 50
2.889564 1.8736253 5.038375 104 84 49
2.9018772 1.8726857 5.035848 106 83 49
2.9187121 1.8746591 5.041155 102 82 47
2.9358594 1.8768138 5.046949 104 84 51
2.944692 1.8736576 5.0384617 106 86 53
2.957272 1.8729043 5.036436 104 84 51
2.972574 1.8738737 5.039043 101 81 46
2.9900799 1.8762172 5.045345 101 83 47
3.011445 1.8809497 5.058071 101 85 49
3.0222828 1.8790935 5.0530796 100 84 50
3.0380256 1.8802902 5.0562973 101 85 51
3.041342 1.8738198 5.038898 101 82 49
3.0577383 1.8754301 5.043228 101 82 49
3.0669968 1.8726678 5.0358 107 84 50
3.0846472 1.8750311 5.0421553 104 81 47
3.1015809 1.8769398 5.047288 99 79 46
3.1233056 1.881718 5.0601373 102 82 49
3.1327362 1.87908 5.0530434 101 82 50
3.1401157 1.8752402 5.0427175 95 76 43
3.1521301 1.8741897 5.0398927 101 83 47
3.1644332 1.8733193 5.037552 100 80 45
3.175766 1.8718843 5.0336933 104 84 49
3.1834428 1.8683163 5.0240984 97 77 44
3.2067914 1.8739369 5.0392127 101 82 49
3.2253122 1.8767003 5.0466437 101 82 49
3.2531548 1.8848411 5.0685353 97 79 43
3.263412 1.8827673 5.0629587 98 80 44
3.274074 1.8809435 5.0580544 96 77 44
3.272981 1.8724103 5.0351076 97 77 44
3.2868836 1.8724914 5.0353255 102 82 49
3.303294 1.8739944 5.039367 97 77 44
3.3302495 1.8814425 5.0593963 97 77 42
3.335071 1.8763759 5.0457716 100 82 46
3.3369462 1.8697003 5.02782 96 78 42
-7.233654 4.8809295 13.029576 125 125 113
-7.2901425 4.9433794 13.196286 125 125 117
-7.235384 4.9306397 13.162277 127 128 120
-7.0900974 4.8557734 12.962422 126 127 121
-7.059603 4.859167 12.971482 126 129 122
-7.0266805 4.860915 12.976149 126 129 118
-7.0461254 4.8990917 13.07806 128 131 120
-7.035317 4.916515 13.124572 128 131 120
-7.0353765 4.941751 13.191939 126 132 120
-6.984961 4.93161 13.164867 131 134 123
-6.967481 4.9447384 13.199913 134 137 128
-6.92836 4.9425645 13.19411 134 135 129
-6.9164124 4.959854 13.240265 140 141 135
-6.9130263 4.9834976 13.303381 139 140 134
-6.8296795 4.9494443 13.212476 142 143 137
-6.818427 4.9675527 13.260817 141 142 136
-6.7959185 4.9776106 13.287665 143 144 138
-6.7753944 4.989238 13.318704 143 144 136
-6.746198 4.99457 13.332938 143 144 136
-6.681276 4.9733663 13.276336 148 149 141
-6.6501637 4.9772363 13.286666 143 144 136
-6.670323 5.019733 13.40011 137 138 130
-6.6694098 5.046753 13.47224 141 144 135
-6.6022673 5.023679 13.410645 137 140 131
-6.5325603 4.9983854 13.343123 141 144 135
-6.46892 4.9774756 13.287306 141 144 135
-6.413728 4.9628677 13.248309 138 141 134
-6.369869 4.956912 13.232411 140 143 136
-6.339167 4.9611855 13.243819 137 138 132
-6.3354716 4.986766 13.312105 137 138 132
-6.3267994 5.0087013 13.370662 134 135 127
-6.3176055 5.0304766 13.42879 131 133 122
-6.2858453 5.0344324 13.43935 130 132 119
-6.2543964 5.038686 13.450705 131 133 122
-6.203807 5.0274777 13.420785 133 133 123
-6.147881 5.0117865 13.378898 134 134 124
-6.117167 5.016583 13.391702 137 137 129
-6.071764 5.009319 13.37231 144 145 137
-5.930666 4.9225383 13.140651 150 151 145
-5.806871 4.8491497 12.94474 139 140 134
-5.708869 4.796532 12.804279 141 146 139
-5.6558046 4.7812552 12.763497 146 153 146
-5.5928473 4.757373 12.699744 146 153 146
-5.5702395 4.7677293 12.72739 147 154 147
-5.5731797 4.80022 12.814124 154 160 156
-5.5120354 4.7775764 12.753676 165 170 166
-5.489348 4.788189 12.782007 161 166 162
-5.481867 4.812287 12.846336 156 160 159
-5.4555974 4.8200955 12.867181 155 159 158
-5.3630385 4.7690578 12.730937 152 156 157
-5.3910017 4.8252273 12.88088 154 158 159
-5.033192 4.8535905 12.956595 0 0 0
-5.0287433 4.883657 13.036858 0 0 0
-4.828552 4.7910748 12.78971 158 163 167
-4.8025556 4.8000264 12.813607 157 162 166
-4.8020163 4.83474 12.906275 160 165 169
-4.7922487 4.860608 12.975329 159 164 168
-4.752656 4.856385 12.964056 157 165 168
-4.6804485 4.818522 12.862981 0 0 0
-4.663545 4.8743386 13.011983 0 0 0
-4.663162 4.911389 13.110888 0 0 0
-4.6359324 4.9205174 13.135256 162 167 170
-4.574307 4.892997 13.0617895 0 0 0
-4.510983 4.863212 12.98228 0 0 0
-4.344634 4.8360157 12.90968 0 0 0
-4.268292 4.8294754 12.8922205 162 167 171
-4.3029327 4.9091945 13.105029 162 167 171
-4.1049323 4.8032327 12.822166 0 0 0
-3.6316237 4.873436 13.009573 159 164 168
-3.5761564 4.894843 13.066719 0 0 0
-3.5508204 4.959205 13.238533 161 166 170
-3.4501886 4.918897 13.130931 161 166 170
-3.3909302 4.8852243 13.041041 168 173 177
-3.328564 4.846311 12.937163 166 171 177
-3.3014865 4.8584933 12.969684 162 167 171
-3.2405894 4.873521 13.009799 174 179 182
-3.2123005 4.8845687 13.039291 174 179 182
-3.1670744 4.869821 12.999923 175 180 183
-3.0966635 4.8708334 13.002625 177 181 182
-3.067303 4.8806577 13.0288515 175 179 180
-3.0683415 4.9396515 13.186335 175 179 182
-2.5296822 4.9433494 13.196206 0 0 0
-2.4982965 4.9526234 13.220963 158 163 166
-2.4637446 4.955801 13.2294445 158 164 164
-2.426084 4.9527264 13.221237 153 159 159
-2.3782115 4.9283967 13.156289 157 163 163
-2.333495 4.9099607 13.107075 155 161 159
-1.8623564 4.895565 13.068646 141 147 145
-1.6258174 4.936455 13.177801 0 0 0
-0.3309683 4.9609694 13.243242 0 0 0
1.9344871 2.8556798 7.6231995 148 130 108
1.9453722 2.8411508 7.5844145 150 133 113
1.9422518 2.806689 7.4924192 154 137 117
1.9452976 2.781764 7.4258823 174 158 135
1.9527072 2.7635295 7.3772054 200 184 161
1.9651928 2.752778 7.3485045 152 136 111
1.9736521 2.736661 7.3054805 113 97 72
1.9884051 2.7295065 7.2863812 124 108 83
2.0045538 2.7243905 7.272724 127 111 86
2.0101817 2.705217 7.2215405 131 115 90
2.0031288 2.6695163 7.1262383 137 121 98
1.9957534 2.6340778 7.0316358 141 125 102
1.9895563 2.6008556 6.9429493 140 124 101
1.9917678 2.5791492 6.8850045 139 123 100
1.9896879 2.5523443 6.8134494 138 120 100
1.993921 2.5340598 6.764639 140 121 104
1.9995575 2.517878 6.721442 141 122 105
2.0009692 2.4967194 6.6649594 143 126 108
1.9914789 2.4624624 6.573511 140 125 104
1.9953592 2.4452028 6.5274367 140 125 102
1.9989355 2.4278798 6.481193 141 127 101
2.0068989 2.416143 6.4498615 141 125 100
2.009086 2.3977165 6.4006724 140 126 100
2.0168238 2.3861756 6.369864 135 121 95
2.020144 2.3696504 6.3257504 141 127 101
2.0216455 2.3512905 6.2767386 138 124 98
2.0305834 2.3418152 6.251445 144 130 104
2.0398352 2.3328574 6.227532 141 127 101
2.0450222 2.3194377 6.191708 140 126 100
2.0429177 2.298036 6.134577 140 126 100
2.0462887 2.2830918 6.094683 140 126 100
2.0557098 2.275085 6.073309 139 123 98
2.0614536 2.2631688 6.041499 145 129 104
2.0665092 2.2506928 6.0081944 146 130 105
2.0703323 2.2370815 5.9718595 147 131 106
2.0703137 2.2195647 5.9250984 147 131 106
2.0804033 2.2130723 5.9077673 139 125 99
2.0874178 2.203434 5.882038 142 128 102
2.100568 2.2003706 5.87386 147 133 107
2.1041696 2.1874268 5.839307 142 128 102
2.1091657 2.1761167 5.8091145 140 126 100
2.113579 2.164379 5.777781 145 131 104
2.1161022 2.150894 5.7417827 141 127 100
2.121505 2.140513 5.714071 148 134 107
2.124652 2.128024 5.6807323 145 131 104
2.1324985 2.1203895 5.6603518 145 131 104
2.1334774 2.1060853 5.6221666 146 130 104
2.1395924 2.0970194 5.5979657 143 127 101
2.143962 2.086384 5.5695744 148 133 104
2.149493 2.0770206 5.544579 148 133 104
2.1561747 2.0688925 5.522881 144 130 103
2.1592865 2.0574758 5.4924045 141 127 100
2.1657188 2.0493588 5.4707365 143 127 101
2.1650214 2.034653 5.431479 145 129 103
2.1729684 2.0282156 5.4142947 142 126 100
2.1778471 2.019021 5.38975 142 125 99
2.1830747 2.010271 5.366392 145 128 102
2.1855319 1.999104 5.3365817 147 130 102
2.1943293 1.9938458 5.322545 146 131 102
2.1983993 1.9843898 5.2973022 142 127 98
2.2055445 1.9778149 5.279751 143 128 99
2.2075982 1.9667897 5.250319 143 127 101
2.2141485 1.9598869 5.231892 142 126 101
2.2144377 1.9475663 5.1990023 144 128 103
2.2171 1.9374764 5.1720676 143 125 101
2.221583 1.9290955 5.149695 140 122 98
2.23011 1.9243095 5.1369185 141 124 98
2.2396634 1.9204634 5.126652 141 125 99
2.2461975 1.9140924 5.1096444 142 126 100
2.2461746 1.9022471 5.0780234 142 126 100
2.249645 1.8934875 5.05464 142 125 99
2.2546628 1.8861293 5.034997 139 122 94
2.2638073 1.8822917 5.0247526 127 108 78
2.2728293 1.8783989 5.014361 111 92 62
2.2853494 1.8774264 5.011765 111 92 59
2.300976 1.8790026 5.0159726 109 90 57
2.3127437 1.8774275 5.011768 106 87 54
2.3292644 1.8797064 5.0178514 109 90 57
2.3432534 1.8799278 5.018442 108 88 53
2.3596766 1.8820881 5.024209 103 83 48
2.3718078 1.8808196 5.020823 106 86 49
2.3846407 1.8801192 5.0189533 107 89 51
2.4001994 1.8815634 5.0228086 106 88 50
2.4148672 1.882297 5.024767 104 86 48
2.428539 1.8822502 5.024642 108 90 54
2.4410331 1.8812964 5.0220957 105 85 52
2.4515781 1.8788594 5.01559 105 85 52
2.4682045 1.8810843 5.0215297 108 88 53
2.4826324 1.8816183 5.022955 107 87 50
2.4976053 1.8825573 5.0254617 107 87 50
2.5087564 1.880621 5.0202928 106 86 49
2.5257654 1.8830733 5.0268393 108 88 51
2.5427372 1.8854713 5.033241 106 86 49
2.558221 1.8867462 5.036644 111 91 54
2.568817 1.8844216 5.0304384 105 87 49
2.5819108 1.8839446 5.0291653 103 85 47
2.5952523 1.8836524 5.028385 107 89 51
2.609123 1.8837453 5.028633 105 87 51
2.625848 1.8858871 5.034351 106 86 51
2.645062 1.8897849 5.044756 106 86 51
2.6625097 1.892387 5.051702 105 85 50
2.672146 1.889439 5.0438323 107 85 48
2.679796 1.8851237 5.032313 105 85 48
2.6974487 1.8878531 5.039599 108 88 51
2.7140503 1.889823 5.0448575 105 87 49
2.7311215 1.8920983 5.0509315 104 86 50
2.7416706 1.8898548 5.0449424 105 85 50
2.7512884 1.8869952 5.0373087 103 83 48
2.7632313 1.8857508 5.0339866 107 87 52
2.7730296 1.8830622 5.0268097 108 88 51
2.7928658 1.8871831 5.0378103 101 81 44
2.8069975 1.8874278 5.0384636 103 83 46
2.8177054 1.8853792 5.0329947 101 81 46
2.8277829 1.8829308 5.0264587 105 85 50
2.8442037 1.8847094 5.0312066 104 86 50
2.8659992 1.8900152 5.0453706 104 86 50
2.8800461 1.8901849 5.0458236 101 83 47
2.8925848 1.8893677 5.043642 103 83 48
2.905387 1.8887297 5.041939 104 84 49
2.9192178 1.8887632 5.0420284 105 85 50
2.9333963 1.8890203 5.0427146 104 84 49
2.946172 1.8883758 5.040994 101 83 47
2.9624507 1.8899722 5.0452557 102 84 48
2.9749415 1.8891484 5.0430565 100 84 48
2.9862106 1.8875599 5.038816 97 81 45
3.0026443 1.8892355 5.043289 101 85 51
3.0192454 1.8910007 5.0480013 100 81 48
3.0374105 1.8937249 5.0552735 105 86 53
3.0456681 1.8902755 5.0460653 102 83 50
3.0617697 1.8917034 5.049877 104 84 51
3.073049 1.8901526 5.0457373 99 79 44
3.0877142 1.8906888 5.0471687 102 82 47
3.1062737 1.8935944 5.054925 98 79 47
3.1216562 1.8945459 5.057465 98 79 47
3.128171 1.890131 5.0456796 101 85 52
3.1341844 1.8854531 5.033192 96 80 47
3.147295 1.8850671 5.0321617 96 80 46
3.1651633 1.8875216 5.038714 100 81 48
3.1782236 1.8871001 5.0375886 104 86 50
3.189297 1.8855076 5.0333376 97 79 43
3.206402 1.8874793 5.038601 96 78 42
3.2187676 1.8866562 5.0364037 98 80 44
3.2463481 1.8947202 5.0579305 96 78 42
3.2588167 1.8939332 5.0558295 99 81 45
3.278422 1.897283 5.0647717 96 78 42
3.2787178 1.8894767 5.043933 99 81 45
3.2920296 1.8892055 5.043209 99 79 44
3.295312 1.8832048 5.02719 101 78 44
3.3089597 1.883153 5.027052 97 77 42
3.317783 1.8803675 5.019616 98 78 43
3.3319018 1.8805937 5.02022 97 79 43
3.3459108 1.8807561 5.0206537 100 82 46
3.3631263 1.8827125 5.025876 96 78 42
3.3691585 1.8784178 5.0144114 96 77 44
-6.9865975 4.7023244 12.461878 0 0 0
-7.086539 4.7929535 12.702059 120 122 111
-7.246042 4.9249573 13.051889 124 125 117
-7.1995378 4.917557 13.032277 129 130 122
-7.1800513 4.9286284 13.061619 126 129 122
-7.1416726 4.926778 13.056714 129 131 126
-7.077664 4.907139 13.004667 122 127 120
-7.0571165 4.917586 13.032354 128 133 126
-7.0711465 4.952356 13.1245 127 133 123
-7.0812683 4.98473 13.210296 128 134 122
-7.0036683 4.9553685 13.1324835 127 133 119
-6.949963 4.942698 13.098906 131 134 123
-6.8863983 4.9228487 13.046301 129 132 121
-6.8359857 4.9122434 13.018195 137 138 130
-6.765003 4.8866687 12.950418 139 140 132
-6.826146 4.9567666 13.136189 141 142 136
-6.8349724 4.989416 13.222715 142 143 137
-6.8039017 4.9931335 13.232567 143 144 138
-6.7862825 5.006815 13.268825 145 146 140
-6.7549524 5.0104733 13.27852 143 144 138
-6.7431774 5.0287547 13.326968 146 147 139
-6.6890607 5.0154862 13.291805 143 144 136
-6.642477 5.0077524 13.271309 138 141 132
-6.647181 5.0388117 13.353621 140 143 134
-6.611312 5.0392876 13.354882 140 143 136
-6.559078 5.027227 13.322919 142 145 138
-6.468906 4.9857903 13.213106 137 140 131
-6.4246583 4.979483 13.196391 133 136 127
-6.3542786 4.9527364 13.125508 131 134 125
-6.3606734 4.9858665 13.213308 130 133 124
-6.3349056 4.9940205 13.234917 127 129 118
-6.315352 5.007194 13.26983 131 133 122
-6.3180346 5.038253 13.352139 129 131 118
-6.2947006 5.0488043 13.380103 134 134 122
-6.25961 5.049995 13.383259 131 131 119
-6.211031 5.0402536 13.357443 133 133 123
-6.164979 5.03246 13.336788 143 143 133
-6.127 5.031203 13.333456 147 147 137
-6.117882 5.0537715 13.393267 149 150 142
-6.0159883 4.999512 13.249471 153 154 146
-5.932956 4.960365 13.145725 154 155 149
-5.7536435 4.8397536 12.826086 143 144 138
-5.710094 4.8325615 12.807027 148 153 147
-5.6665554 4.825291 12.787759 145 150 144
-5.631907 4.825547 12.788438 148 155 148
-5.580672 4.8115063 12.751226 149 156 149
-5.556237 4.8205404 12.775168 153 160 153
-5.5597486 4.854088 12.864075 169 174 168
-5.5239944 4.8535624 12.862682 0 0 0
-5.503088 4.8661594 12.896066 0 0 0
-5.4320188 4.834276 12.81157 0 0 0
-5.3733125 4.8130527 12.755325 0 0 0
-5.254468 4.737333 12.554656 149 155 155
-5.101525 4.8866186 12.950286 0 0 0
-4.9301686 4.85727 12.872507 156 161 165
-5.0042024 4.965641 13.159708 0 0 0
-4.909374 4.9068074 13.00379 0 0 0
-4.879351 4.9123597 13.018504 0 0 0
-4.789577 4.8573966 12.872843 162 167 171
-4.7588124 4.8619075 12.884798 154 159 163
-4.620422 4.7914267 12.698013 0 0 0
-4.6067967 4.88742 12.952411 0 0 0
-4.3099446 4.8719654 12.911452 0 0 0
-4.2887025 4.887971 12.95387 160 165 169
-4.2389326 4.8714585 12.9101095 160 165 169
-3.915547 4.8208184 12.775906 162 167 171
-3.6595652 4.8988 12.982568 0 0 0
-3.6382008 4.91788 13.0331335 165 170 174
-3.5128193 4.8920784 12.964755 0 0 0
-3.5120237 4.9408045 13.093887 0 0 0
-3.4527433 4.907409 13.005384 0 0 0
-3.4275415 4.9222593 13.044739 163 168 172
-3.3857358 4.913326 13.021064 0 0 0
-3.3359225 4.892459 12.965763 164 169 173
-3.308338 4.904094 12.996599 167 172 176
-3.2323945 4.84352 12.836068 172 177 180
-3.181515 4.8195853 12.772637 0 0 0
-3.1691618 4.854129 12.864183 178 183 186
-3.142891 4.8678913 12.900656 178 183 186
-3.1242237 4.8938766 12.969521 176 181 184
-3.085295 4.8883557 12.95489 176 182 182
-3.0311396 4.8583016 12.875241 173 179 179
-3.0452065 4.9381723 13.086911 171 177 177
-2.5265932 4.9733334 13.180093 161 166 169
-2.4929645 4.978108 13.192746 162 167 170
-2.459692 4.9837437 13.207683 161 166 170
-2.4243984 4.985392 13.212051 161 166 170
-2.3832889 4.97495 13.184377 155 160 163
-2.3281212 4.9343915 13.076891 160 165 168
-1.8468163 4.890132 12.959597 160 166 166
-1.52082 4.9824376 13.204221 0 0 0
1.9404463 2.8546317 7.56521 145 129 106
1.9399297 2.823785 7.483462 149 133 110
1.9456102 2.8025086 7.427076 150 134 109
1.9474927 2.7762573 7.357506 161 145 120
1.9528415 2.7554333 7.302319 196 180 155
1.9603605 2.7380617 7.256282 188 172 147
1.9752657 2.7312512 7.238233 118 102 77
1.9949768 2.731155 7.237978 123 107 82
2.0036056 2.716038 7.1979156 133 117 92
1.9977905 2.6818254 7.107247 139 123 100
1.9908879 2.6468258 7.014493 139 123 100
1.9828979 2.611062 6.9197135 141 124 104
1.9884688 2.593662 6.873601 139 122 102
1.9918653 2.5737782 6.8209057 140 122 102
2.0060158 2.5680299 6.8056717 139 121 101
2.0028331 2.540402 6.7324533 140 122 102
1.997482 2.5105512 6.653344 137 121 98
1.989268 2.4776735 6.566213 142 126 103
1.9916358 2.4584455 6.5152564 138 124 98
2.002063 2.4494185 6.4913335 140 126 99
2.0089912 2.436307 6.456586 139 123 98
2.013984 2.421097 6.416277 138 124 98
2.0133848 2.3994853 6.359003 139 125 99
2.012551 2.3779664 6.3019743 140 124 99
2.0141332 2.359643 6.2534146 141 125 100
2.0297666 2.357951 6.2489305 141 123 99
2.0393486 2.3493161 6.2260466 141 123 99
2.0396993 2.3302777 6.175592 139 121 97
2.041976 2.313734 6.1317487 143 129 103
2.044278 2.297488 6.088694 141 127 101
2.051999 2.287546 6.062346 140 126 100
2.0536869 2.2710907 6.0187373 142 126 101
2.060201 2.2601917 5.9898534 143 127 102
2.0675807 2.250407 5.9639225 144 126 102
2.0700908 2.2355163 5.92446 148 130 106
2.0758576 2.2243469 5.894859 145 129 104
2.0808744 2.2125518 5.8636003 142 126 101
2.093018 2.2084565 5.8527474 142 128 102
2.0984519 2.1973977 5.8234396 144 130 104
2.1014562 2.18398 5.787881 146 132 106
2.1072755 2.1736667 5.760549 144 130 104
2.113933 2.1643646 5.735897 142 128 101
2.1218433 2.1564727 5.714982 144 130 103
2.1230996 2.1419826 5.6765814 144 130 103
2.129889 2.133245 5.653425 143 129 102
2.13075 2.118738 5.6149793 147 133 106
2.138176 2.11092 5.59426 145 131 104
2.1433997 2.101054 5.568114 145 131 102
2.1464658 2.089227 5.536771 147 133 104
2.1485052 2.0765734 5.503237 144 130 101
2.1502175 2.0637817 5.469337 146 132 103
2.1542218 2.0533512 5.4416943 142 128 101
2.1545582 2.0395916 5.4052296 144 130 103
2.1627712 2.033425 5.3888874 146 130 105
2.172781 2.0290196 5.377212 146 130 104
2.1821053 2.0240378 5.3640094 142 126 100
2.1857214 2.0138628 5.3370442 144 128 102
2.1919093 2.006177 5.316675 146 131 102
2.1914234 1.9925239 5.280493 143 128 99
2.1964023 1.9839859 5.257866 143 128 99
2.200947 1.9751693 5.2345004 140 126 99
2.2095957 1.9701257 5.221134 144 130 103
2.2131462 1.9606304 5.19597 143 129 102
2.2160444 1.9506819 5.1696053 143 127 101
2.2214148 1.9430219 5.149305 141 125 99
2.2290308 1.9374102 5.1344333 140 124 98
2.2366123 1.9318388 5.119668 143 127 102
2.2424562 1.9248452 5.101134 141 127 100
2.2403946 1.9111942 5.0649567 141 125 99
2.2468479 1.9049299 5.048355 138 122 96
2.2523127 1.897909 5.029749 137 121 95
2.2599316 1.8927777 5.01615 124 107 79
2.2683566 1.8883791 5.004493 109 92 62
2.279655 1.8864111 4.9992776 107 91 57
2.2957263 1.8883924 5.0045285 107 91 57
2.3090677 1.8881183 5.003802 108 89 56
2.3253498 1.8902376 5.0094185 109 90 57
2.3396564 1.8907356 5.0107384 112 92 59
2.353014 1.8904656 5.0100226 111 91 56
2.3650546 1.8891467 5.0065274 106 88 50
2.3776605 1.8882918 5.004262 105 87 49
2.3940432 1.890429 5.009926 107 89 51
2.4119573 1.8937443 5.018712 108 90 52
2.426199 1.8941551 5.0198007 107 89 51
2.436739 1.8916875 5.013261 105 87 49
2.4481943 1.8899542 5.0086675 103 83 46
2.4633195 1.8910574 5.011591 105 85 48
2.4788256 1.8924392 5.015253 106 86 49
2.4920776 1.8920945 5.0143394 108 88 51
2.5038192 1.890613 5.010413 104 84 47
2.5216076 1.8936887 5.018564 106 86 49
2.5376246 1.8954078 5.0231204 105 85 48
2.55396 1.8973453 5.028255 109 91 53
2.5654225 1.895661 5.0237913 105 87 49
2.5775115 1.8944553 5.020596 108 90 52
2.5909784 1.8942698 5.0201044 105 87 49
2.603276 1.8932358 5.017364 104 84 49
2.621631 1.8965946 5.0262656 110 90 57
2.639356 1.8994652 5.033873 108 85 53
2.6586957 1.9034622 5.0444655 109 86 52
2.6696944 1.901477 5.0392046 106 83 49
2.6802394 1.8991907 5.0331454 106 84 47
2.6921926 1.8979204 5.029779 110 88 51
2.7084644 1.899692 5.0344744 106 86 49
2.726165 1.902443 5.0417647 100 82 44
2.7388117 1.9016571 5.039682 105 87 51
2.7484992 1.8988346 5.032202 106 86 51
2.7586565 1.8963633 5.0256524 104 84 49
2.7698672 1.8946369 5.021077 105 85 48
2.783541 1.8946041 5.0209904 105 85 48
2.7965367 1.8941122 5.0196867 107 87 52
2.811422 1.894899 5.021772 101 82 49
2.8268204 1.896022 5.024748 102 83 50
2.8421674 1.8970999 5.0276046 103 84 51
2.8608017 1.9003512 5.036221 100 84 50
2.8800647 1.9039868 5.045856 101 82 49
2.89613 1.905484 5.0498238 103 85 49
2.9070446 1.9035943 5.0448155 104 84 49
2.9133027 1.8986874 5.0318117 104 84 49
2.9261057 1.8980722 5.0301814 103 85 49
2.941598 1.8991991 5.033168 101 83 47
2.9577441 1.9007357 5.03724 101 85 49
2.9697883 1.8996341 5.034321 101 85 51
2.9788268 1.896629 5.0263567 103 87 53
2.998081 1.9001261 5.0356245 99 83 49
3.0145826 1.9018546 5.0402055 97 78 45
3.030069 1.9029299 5.043055 100 80 47
3.0373793 1.8988838 5.0323324 101 81 48
3.0547702 1.9011481 5.038333 105 85 50
3.0720444 1.9033196 5.044088 100 81 48
3.0870323 1.9040617 5.0460544 97 78 45
3.1000628 1.9035951 5.044818 98 79 46
3.1079266 1.8999741 5.0352216 99 83 50
3.1098597 1.8927753 5.016144 96 80 47
3.1174972 1.8890965 5.0063944 98 83 50
3.1404512 1.8946905 5.0212193 96 82 47
3.167938 1.9029588 5.0431314 96 82 47
3.1749299 1.8988974 5.032368 100 84 48
3.1764507 1.891613 5.0130634 99 81 45
3.191506 1.8924166 5.015193 97 79 43
3.2128925 1.8969513 5.0272107 99 81 45
3.2373607 1.9032592 5.0439277 97 78 45
3.2421472 1.8979917 5.029968 101 82 49
3.2575552 1.8989604 5.032535 101 85 49
3.2682416 1.89718 5.027817 100 84 48
3.2838356 1.8982514 5.0306563 100 82 46
3.287888 1.89267 5.015865 102 82 47
3.296995 1.8900325 5.008875 100 80 45
3.304731 1.8866342 4.999869 98 78 43
-7.05412 4.7821565 12.582316 0 0 0
-7.0867724 4.8515916 12.765007 129 132 123
-7.120224 4.898606 12.888707 129 132 123
-7.157122 4.948471 13.019907 129 132 125
-7.032873 4.88686 12.857802 130 133 126
-7.0714746 4.9383564 12.993295 126 131 124
-7.0454426 4.9450088 13.010797 0 0 0
-7.0815973 4.9955964 13.143898 130 136 126
-7.06411 5.008666 13.178286 129 135 123
-6.950455 4.953335 13.032704 132 138 126
-6.886959 4.933364 12.980159 135 138 127
-6.892851 4.9631486 13.058525 134 136 125
-6.8663907 4.9698277 13.0760975 142 143 135
-6.8220997 4.963603 13.05972 141 142 134
-6.788581 4.9651914 13.063899 143 144 138
-6.817139 5.01244 13.188215 142 143 138
-6.818646 5.040195 13.261242 142 143 137
-6.7807984 5.039002 13.258102 138 139 133
-6.730267 5.028319 13.229995 137 138 132
-6.672446 5.0120454 13.187177 140 141 135
-6.6370544 5.0125346 13.188464 140 143 136
-6.5907593 5.004749 13.167979 140 143 136
-6.590244 5.031832 13.239238 136 139 132
-6.5777254 5.049999 13.287038 140 141 136
-6.476243 4.9996877 13.154662 135 138 131
-6.4053216 4.972539 13.083232 130 136 126
-6.3686476 4.9718213 13.081344 129 135 125
-6.3556395 4.9896755 13.12832 130 133 124
-6.3583097 5.0201106 13.208398 128 129 121
-6.325924 5.0230575 13.216151 127 129 118
-6.3046637 5.0349236 13.247372 132 134 123
-6.309675 5.068028 13.334473 135 137 126
-6.286773 5.078966 13.363253 140 142 131
-6.226781 5.059893 13.313069 140 140 130
-6.1864047 5.056629 13.3044815 147 144 135
-6.144962 5.0524497 13.293485 148 148 140
-6.094787 5.0409985 13.263355 153 152 147
-6.082919 5.061283 13.316727 156 157 149
-5.985073 5.009844 13.181384 157 158 152
-5.9070334 4.9744606 13.088288 158 161 154
-5.7909884 4.906446 12.909335 150 155 148
-5.696094 4.8556275 12.775627 147 152 146
-5.669649 4.8628917 12.79474 142 149 142
-5.60946 4.841124 12.737467 149 156 149
-5.5526333 4.822005 12.687161 152 159 152
-5.5495496 4.8496094 12.759792 155 162 155
-5.2767015 4.7607474 12.525988 0 0 0
-5.0346403 4.8574796 12.780499 160 164 163
-4.930854 4.8584614 12.783083 0 0 0
-4.7843146 4.851566 12.764939 0 0 0
-4.752631 4.854836 12.773544 0 0 0
-4.606885 4.8119893 12.66081 0 0 0
-4.601531 4.8427696 12.741796 156 161 164
-4.5815125 4.895799 12.881322 163 168 171
-4.586141 4.938693 12.99418 0 0 0
-4.5536046 4.9419217 13.002675 161 166 169
-4.2970157 4.775245 12.564133 0 0 0
-4.303844 4.900305 12.893177 0 0 0
-4.264409 4.895484 12.880492 0 0 0
-4.2345433 4.9016595 12.896741 0 0 0
-3.9560866 4.862647 12.794096 0 0 0
-3.7844665 5.0056267 13.170289 0 0 0
-3.653933 4.926686 12.962587 0 0 0
-3.565352 4.854313 12.772167 165 170 174
-3.4311142 4.9119873 12.923915 0 0 0
-3.38632 4.949765 13.023312 0 0 0
-3.3337262 4.9246483 12.957227 0 0 0
-3.3025782 4.9310126 12.973972 0 0 0
-3.1728864 4.8413253 12.737996 0 0 0
-3.1476464 4.856092 12.776849 0 0 0
-3.1383522 4.8960667 12.882026 176 181 184
-3.1090615 4.9053984 12.906578 175 180 183
-3.0529735 4.872179 12.819175 174 179 182
-3.0304856 4.8924327 12.872464 175 181 181
-3.0014853 4.9025245 12.899017 168 173 176
-2.52702 4.9397764 12.99703 0 0 0
-2.523419 5.0030594 13.163534 162 167 171
-2.4890676 5.006324 13.172123 165 170 174
-2.4552586 5.0107913 13.183877 163 168 172
-2.4197445 5.01186 13.186688 164 169 173
-2.3787658 5.0014715 13.159356 159 164 168
-2.3115993 4.9348574 12.984088 160 165 169
-1.8406409 4.909079 12.916263 0 0 0
-1.7985063 4.890491 12.867355 0 0 0
1.9272223 2.8864658 7.594571 144 130 104
1.9332273 2.8646095 7.537065 147 133 107
1.9410337 2.845855 7.4877205 145 131 105
1.9462659 2.8237572 7.429579 146 132 106
1.9488403 2.7982993 7.3625965 150 136 110
1.9452517 2.764603 7.273938 155 141 115
1.9508253 2.744478 7.2209873 178 164 138
1.9616393 2.7320542 7.1882997 203 189 163
1.9751679 2.7236207 7.1661096 114 98 73
1.9856637 2.7112112 7.1334596 121 105 80
1.9813653 2.67904 7.048814 140 124 101
1.9822506 2.6544294 6.9840612 144 128 105
1.9838285 2.6312072 6.922961 146 128 108
1.9819349 2.6038628 6.851015 142 124 104
1.9901125 2.590138 6.8149037 143 125 105
2.0032616 2.583078 6.796328 139 121 101
2.0059285 2.5627553 6.742858 137 120 100
2.0020118 2.5344687 6.6684327 139 123 98
1.9961792 2.5042887 6.589026 139 125 99
2.0001786 2.4868724 6.5432024 138 124 98
2.006795 2.47299 6.506676 138 124 97
2.0126336 2.4584012 6.4682918 139 125 98
2.0133064 2.4378116 6.4141183 139 125 99
2.010938 2.4139266 6.3512745 140 126 100
2.0054588 2.3867486 6.2797666 140 124 101
2.0136368 2.3761473 6.2518735 143 125 101
2.02986 2.3751378 6.249218 137 119 95
2.038597 2.3654592 6.2237525 141 123 99
2.0408633 2.3484943 6.179116 142 124 100
2.0442371 2.3330722 6.138539 145 129 104
2.049187 2.3196847 6.1033154 141 127 101
2.0536535 2.3059711 6.0672336 139 127 101
2.0553513 2.289393 6.023615 141 127 101
2.0591917 2.2754462 5.9869194 145 129 104
2.0678325 2.2669818 5.9646487 142 126 101
2.0739672 2.255924 5.9355545 141 125 100
2.0801425 2.2450814 5.907027 143 127 102
2.0815327 2.2292814 5.865455 144 128 103
2.091145 2.2224607 5.84751 144 130 103
2.0974603 2.2122664 5.8206873 144 130 104
2.104024 2.2024858 5.7949533 146 132 106
2.1057868 2.1878629 5.7564793 145 131 105
2.1110864 2.1771045 5.728173 140 126 100
2.1188207 2.1689968 5.7068405 146 132 106
2.127013 2.1614728 5.6870446 144 130 104
2.132844 2.1516762 5.6612687 144 130 103
2.1334362 2.1367736 5.6220584 144 130 103
2.136856 2.1248958 5.5908065 147 131 105
2.1437364 2.1166034 5.5689883 146 133 101
2.1456306 2.1035397 5.5346165 146 133 101
2.1475387 2.090672 5.5007606 146 132 103
2.1516938 2.0801558 5.4730916 144 130 101
2.1593695 2.073165 5.454698 144 130 101
2.1620262 2.061484 5.4239645 146 132 105
2.1679351 2.0530427 5.401754 144 130 104
2.1744614 2.0452957 5.381371 144 128 102
2.1811125 2.0377696 5.361569 145 129 103
2.1847975 2.027591 5.3347883 144 128 102
2.1904585 2.0193691 5.313156 143 127 101
2.1913013 2.006843 5.2801986 145 129 104
2.1963506 1.9983082 5.2577424 143 127 102
2.2002723 1.9888648 5.232896 144 130 104
2.209189 1.9840293 5.2201734 142 128 102
2.214009 1.9756005 5.197996 143 129 103
2.2178159 1.9663806 5.173738 142 128 102
2.2240758 1.9594388 5.155473 140 126 99
2.230777 1.9529707 5.1384554 141 127 100
2.2421327 1.9506329 5.132304 141 127 101
2.2461376 1.9419689 5.1095085 138 124 97
2.248619 1.9321029 5.08355 139 123 97
2.2505817 1.921915 5.0567446 138 122 96
2.2569816 1.9156176 5.0401754 136 121 92
2.2621703 1.9083748 5.021119 129 112 84
2.271651 1.9048182 5.011761 112 97 66
2.2821393 1.9021441 5.0047255 109 95 60
2.2970185 1.90314 5.0073457 106 92 55
2.3107624 1.903189 5.0074744 106 90 54
2.3257627 1.904266 5.0103083 104 86 50
2.3394268 1.9042426 5.0102468 108 90 54
2.3519197 1.9032719 5.007693 104 86 50
2.3649948 1.9027808 5.0064006 107 89 51
2.379047 1.9030769 5.0071797 105 87 49
2.3940551 1.9041301 5.0099506 105 87 47
2.41258 1.9079524 5.0200076 107 89 53
2.4261353 1.9078236 5.0196686 107 89 51
2.4399784 1.9079212 5.0199256 106 88 48
2.4521763 1.9067386 5.016814 104 86 48
2.4667513 1.9074073 5.0185733 105 87 49
2.4795198 1.9066793 5.016658 107 87 50
2.4898314 1.9040804 5.00982 103 83 46
2.5015757 1.9025996 5.0059237 107 87 52
2.5174038 1.9042239 5.0101976 110 90 55
2.5336103 1.9061154 5.0151744 105 87 49
2.5508506 1.9087602 5.022133 106 88 50
2.5631557 1.9077034 5.0193524 107 89 51
2.576079 1.9071155 5.0178056 101 83 45
2.5897338 1.9070727 5.017693 104 84 47
2.607281 1.9098815 5.025083 104 84 51
2.626954 1.9142097 5.0364714 106 86 53
2.6424499 1.915465 5.039774 103 82 51
2.6594336 1.9177802 5.0458655 107 87 54
2.6699777 1.9154518 5.039739 108 84 50
2.6820467 1.9142355 5.036539 105 81 45
2.689075 1.9094524 5.0239544 107 85 48
2.7036219 1.9100296 5.025473 103 81 44
2.7202623 1.9120725 5.030848 106 86 49
2.7396927 1.9160461 5.041303 103 85 47
2.7518363 1.9149094 5.038312 104 86 48
2.7669766 1.9158586 5.0408096 105 87 51
2.775456 1.9122095 5.0312085 103 85 49
2.7863605 1.9102589 5.0260763 103 85 49
2.798123 1.9089125 5.022534 102 83 50
2.8120432 1.9090445 5.022881 104 85 53
2.8306894 1.9123679 5.0316253 103 84 51
2.8447175 1.9125543 5.0321155 104 86 50
2.8627872 1.9154431 5.0397162 106 87 54
2.8813977 1.9186642 5.0481915 106 87 54
2.898002 1.9205252 5.0530877 99 80 47
2.9067595 1.917193 5.0443206 102 82 49
2.9123008 1.9117811 5.0300813 103 82 51
2.9245791 1.9108218 5.0275574 103 84 52
2.9454985 1.9154907 5.0398417 101 82 50
2.9597 1.915768 5.040571 101 85 51
2.971126 1.9142543 5.0365887 101 85 51
2.9835842 1.9134165 5.0343843 100 84 50
3.002502 1.9167103 5.0430503 101 82 49
3.0191617 1.9185388 5.0478616 102 83 51
3.0296104 1.9164219 5.0422916 103 83 50
3.0446036 1.9171858 5.0443015 104 84 51
3.0589523 1.9175388 5.0452304 105 85 52
3.0759108 1.9195173 5.050436 101 82 49
3.0867164 1.9176557 5.045538 97 78 45
3.1029475 1.9191661 5.049512 100 81 48
3.1110468 1.915656 5.0402765 99 83 49
3.113992 1.9090171 5.022809 95 81 46
3.1177309 1.9029211 5.0067697 97 83 48
3.1369216 1.906268 5.015576 98 84 49
3.162239 1.9132929 5.034059 99 83 49
3.1711066 1.910347 5.026308 102 84 48
3.1760182 1.9050537 5.012381 101 82 49
3.189296 1.9048026 5.01172 100 81 48
3.213635 1.9111315 5.0283723 99 80 47
3.227248 1.9110552 5.0281715 100 81 49
3.2334955 1.9066365 5.0165453 98 79 46
3.2461617 1.9060237 5.014933 98 82 46
3.2661424 1.9096929 5.024587 96 80 44
3.275773 1.9073052 5.018305 99 81 45
3.2795382 1.9015365 5.0031266 97 79 43
3.2885103 1.8988222 4.995985 97 77 42
3.3034627 1.899569 4.99795 93 73 38
3.319452 1.9009036 5.0014615 99 79 46
-6.9266853 4.7526975 12.415534 129 132 123
-7.0673184 4.8730626 12.729965 128 131 122
-7.2133183 4.9983373 13.057222 127 130 121
-7.0915937 4.938421 12.900701 129 132 125
-7.0887017 4.961071 12.95987 132 135 128
-6.9830685 4.9116836 12.830855 130 133 126
-7.0510325 4.984517 13.021119 131 134 127
-6.9709067 4.952871 12.938449 134 137 126
-6.901494 4.928552 12.874922 135 138 127
-6.9116044 4.9610653 12.959856 135 137 126
-6.979234 5.035413 13.154075 0 0 0
-6.945741 5.037194 13.158727 137 139 128
-6.876338 5.0128145 13.095041 140 141 133
-6.819745 4.997568 13.055212 138 139 133
-6.815732 5.0208945 13.116149 138 139 133
-6.812328 5.044919 13.178907 143 144 138
-6.8154535 5.07406 13.2550335 142 143 137
-6.8233247 5.1070647 13.341251 145 146 140
-6.708286 5.0479345 13.186786 140 141 135
-6.6290565 5.015258 13.101423 143 144 138
-6.5767946 5.0027394 13.068722 138 139 133
-6.56703 5.0225873 13.12057 137 140 133
-6.554798 5.0407553 13.168031 136 141 134
-6.5322447 5.0511427 13.195167 129 134 127
-6.465189 5.0270424 13.132209 134 137 130
-6.4325986 5.0296216 13.138947 131 137 127
-6.3348927 4.9810305 13.012011 131 134 125
-6.421392 5.0775456 13.264139 0 0 0
-6.364528 5.061153 13.221316 132 133 125
-6.322623 5.056536 13.209255 137 138 130
-6.3170695 5.0811057 13.273438 141 142 134
-6.3226852 5.1149945 13.361967 141 143 132
-6.275012 5.1059165 13.338253 148 149 141
-6.2218113 5.092209 13.3024435 152 152 144
-6.1577888 5.069431 13.24294 150 149 144
-6.1210866 5.069008 13.241836 152 151 146
-6.1527247 5.1255107 13.389439 157 156 151
-6.0255704 5.0496163 13.191178 159 158 153
-5.981428 5.042794 13.173357 159 160 154
-5.875526 4.9835052 13.0184765 162 165 158
-5.7366357 4.8953443 12.788172 153 156 149
-5.679436 4.8762403 12.738266 0 0 0
-5.631546 4.8649426 12.708753 0 0 0
-5.57942 4.8498225 12.669255 152 157 151
-5.5157976 4.8244586 12.602996 148 153 147
-5.496359 4.837664 12.637493 156 163 156
-5.4477654 4.8559194 12.685182 157 163 159
-5.272551 4.791208 12.516135 0 0 0
-5.253264 4.868432 12.717869 0 0 0
-5.079856 4.902335 12.806435 0 0 0
-4.948747 4.911154 12.829471 0 0 0
-4.795987 4.8279653 12.612157 0 0 0
-4.828183 4.89556 12.788734 155 160 164
-4.647342 4.8891525 12.771997 0 0 0
-4.6362615 4.914406 12.837966 157 162 166
-4.6180153 4.93239 12.884948 157 162 165
-4.5663424 4.9527307 12.938083 0 0 0
-4.500578 4.919494 12.851258 0 0 0
-4.431193 4.8817463 12.752649 161 166 170
-3.91217 4.8432436 12.652068 0 0 0
-3.6318755 4.9321566 12.884336 0 0 0
-3.6399975 4.99158 13.03957 0 0 0
-3.1382163 4.8763566 12.73857 177 182 186
-3.119855 4.9022074 12.8061 177 182 185
-3.0874093 4.906263 12.816694 176 181 184
-3.0527883 4.906914 12.818397 168 173 176
-3.0242505 4.917473 12.845979 174 179 182
-2.9885988 4.9165764 12.8436365 169 174 178
-2.525137 4.971588 12.987345 0 0 0
-2.520571 5.0333467 13.148677 0 0 0
-2.4850397 5.034162 13.150807 164 169 173
-2.4507248 5.0375023 13.159533 164 169 173
-2.41243 5.032639 13.146829 163 168 172
-2.3688662 5.01647 13.10459 162 167 171
-2.3070374 4.9605327 12.958465 155 160 164
-1.0058405 5.0059347 13.077068 156 160 161
-0.97426075 5.0273924 13.133123 152 156 157
-0.5108504 5.0588574 13.21532 163 165 164
-0.47457558 5.0571647 13.210897 165 167 164
1.9229151 2.9007235 7.577598 0 0 0
1.9274483 2.8765826 7.5145345 144 130 104
1.9391781 2.863578 7.480562 145 131 105
1.9485395 2.8473837 7.4382577 145 131 105
1.9439034 2.8112807 7.3439455 148 134 108
1.9434801 2.781946 7.2673135 145 131 105
1.9474155 2.7593803 7.2083654 153 139 113
1.9518687 2.7379935 7.152496 169 155 129
1.9588273 2.72051 7.106824 200 184 159
1.9644402 2.7015195 7.0572147 150 134 109
1.9674652 2.6793737 6.999363 136 120 97
1.9710641 2.6584287 6.944648 138 122 99
1.9742835 2.637376 6.889652 153 136 116
1.9823899 2.623188 6.852588 137 120 102
1.9883423 2.6064417 6.8088417 142 123 106
1.9985435 2.5955238 6.780321 137 119 99
2.0022366 2.5764322 6.730448 141 123 101
2.0064929 2.5584064 6.683358 141 125 100
2.0077903 2.5369668 6.6273518 144 128 103
2.0070837 2.513401 6.5657907 137 123 97
2.0113463 2.4964209 6.521433 140 126 100
2.0092287 2.4718893 6.457349 136 122 96
2.008789 2.4498315 6.399727 139 125 99
2.0068464 2.4263372 6.338352 143 127 102
2.0104752 2.4099233 6.295474 139 121 97
2.015508 2.3954568 6.257683 139 121 97
2.0278506 2.3898482 6.243032 139 121 97
2.034145 2.3772652 6.2101607 137 119 95
2.0353005 2.3589337 6.1622734 140 122 98
2.039126 2.3439727 6.1231904 142 126 101
2.0507896 2.3381915 6.1080885 140 124 99
2.0558178 2.325 6.073628 141 126 103
2.0565968 2.3072522 6.027265 140 124 101
2.0529687 2.2848818 5.968827 141 125 102
2.0640278 2.2790813 5.953674 147 131 106
2.0729039 2.2709801 5.9325113 144 128 103
2.0810018 2.2621586 5.9094667 143 129 103
