ply
format ascii 1.0
element vertex 1198
property float x
property float y
property float z
property uchar red
property uchar green
property uchar blue
end_header
2.60009 1.7542979 5.0916796 115 93 255
2.6129673 1.7536014 5.0896583 110 88 255
2.6231165 1.7510912 5.0823727 112 90 255
2.6425693 1.7547854 5.093095 111 89 255
2.655664 1.7542411 5.091515 111 92 255
2.6744318 1.7574303 5.1007714 110 91 255
2.6875727 1.756908 5.0992556 110 90 255
2.7065663 1.7601973 5.1088023 108 88 255
2.7201536 1.759955 5.108099 107 85 255
2.7355766 1.7608969 5.1108327 109 87 255
2.747716 1.7597262 5.1074347 111 89 255
2.7649078 1.7617868 5.1134157 110 88 255
2.7796297 1.7622607 5.114791 109 85 255
2.791267 1.760784 5.110505 109 85 255
2.7984495 1.7565259 5.0981464 112 88 255
2.8129494 1.7568802 5.0991745 112 88 255
2.8260462 1.756359 5.097662 107 83 255
2.8405323 1.7567021 5.0986576 108 86 255
2.8543065 1.7566036 5.098372 110 90 255
2.8702369 1.7578268 5.101922 107 87 255
2.892022 1.7626061 5.1157937 107 89 255
2.9037027 1.7612112 5.111745 109 90 255
2.922425 1.7640798 5.120071 108 89 255
2.9414046 1.7670759 5.1287665 109 89 255
2.9573858 1.7682507 5.1321764 108 88 255
2.963277 1.76341 5.118127 109 89 255
2.964716 1.7559777 5.096555 109 89 255
2.975012 1.7538365 5.0903406 108 88 255
2.9908185 1.7549484 5.093568 110 90 255
3.011666 1.7589943 5.105311 108 86 255
3.0310674 1.7621624 5.114506 104 82 255
3.045285 1.7623014 5.114909 110 86 255
3.0535421 1.7590055 5.1053433 112 88 255
3.066058 1.7581818 5.1029525 110 88 255
3.0875576 1.7624937 5.1154675 108 86 255
3.1056309 1.76482 5.122219 106 84 255
3.125276 1.7680144 5.1314907 112 90 255
3.1288822 1.7621473 5.114462 107 87 255
3.1426766 1.7620448 5.1141644 111 89 255
3.1582909 1.762959 5.116818 106 86 255
3.1819918 1.7683593 5.1324916 107 87 255
3.19481 1.7676907 5.130551 107 88 255
3.2006578 1.7631881 5.1174827 109 87 255
3.2132435 1.7624203 5.1152544 107 88 255
3.2329047 1.7655231 5.12426 107 88 255
3.2496042 1.766989 5.1285143 100 81 255
3.258101 1.7640008 5.1198416 105 85 255
3.261993 1.7585559 5.1040382 108 90 255
3.2759786 1.7585757 5.1040955 104 86 255
3.305488 1.7668933 5.128237 108 90 255
3.3227892 1.7686425 5.1333137 101 83 255
3.3336298 1.7669526 5.128409 104 86 255
3.3316545 1.7585125 5.1039124 104 86 255
3.3423514 1.7568034 5.098952 106 88 255
3.3593965 1.7584313 5.103677 108 90 255
3.3788257 1.7612888 5.11197 107 89 255
3.3971918 1.7635705 5.1185927 107 87 255
3.4150014 1.7655461 5.1243267 103 83 255
3.4294024 1.7657504 5.1249194 107 85 255
3.4436996 1.7658999 5.1253533 108 86 255
3.4425368 1.7581524 5.102867 106 84 255
3.4464395 1.753044 5.0880404 103 80 255
3.4434874 1.744504 5.063254 106 83 255
3.4562201 1.7439467 5.0616364 105 85 255
3.4819884 1.7499452 5.0790462 101 81 255
3.509732 1.7568846 5.0991874 104 82 255
-7.6680393 4.7730694 13.744352 64 49 30
-7.6585436 4.790625 13.794906 67 52 33
-7.617677 4.788635 13.789174 74 59 38
-7.587262 4.793227 13.802398 74 59 36
-7.5668073 4.804189 13.833963 75 61 35
-7.551681 4.818661 13.875637 78 64 38
-7.5126996 4.8179812 13.873678 80 66 39
-7.475274 4.8182964 13.874587 78 64 37
-7.4510875 4.8271923 13.900203 80 66 40
-7.420746 4.8321714 13.91454 80 66 40
-7.3817673 4.8315487 13.912746 80 66 40
-7.3345275 4.825484 13.895283 83 69 43
-7.28676 4.819007 13.876633 79 65 39
-7.2559958 4.8237667 13.890338 78 64 37
-7.215358 4.8219776 13.885186 83 69 42
-7.1949067 4.833731 13.919032 87 73 47
-7.158861 4.835078 13.92291 85 71 44
-7.1363997 4.845662 13.953388 87 72 49
-7.101515 4.84788 13.959774 85 70 47
-7.0515633 4.8397803 13.93645 85 69 44
-7.0099893 4.8373737 13.929521 87 71 46
-6.9716077 4.8371563 13.928894 84 68 43
-6.939647 4.841416 13.94116 86 72 46
-6.9049764 4.843821 13.948086 87 73 47
-6.872358 4.8477006 13.959258 90 76 50
-6.8399515 4.851774 13.970987 87 73 46
-6.8117976 4.858927 13.991584 93 77 51
-6.769361 4.8559146 13.98291 94 77 49
-6.722122 4.849404 13.964162 93 73 46
-6.6838336 4.8493123 13.963899 105 84 55
-6.66155 4.8608985 13.997262 104 83 52
-6.6353283 4.8697286 14.022688 110 90 55
-6.597761 4.870286 14.024293 112 92 55
-6.550657 4.8637686 14.005527 115 93 56
-6.510213 4.8621492 14.000863 110 90 55
-6.4730353 4.8629646 14.003211 110 86 50
-6.441825 4.868299 14.018572 111 91 56
-6.401617 4.866857 14.01442 110 90 57
-6.354555 4.8601556 13.995123 140 121 89
-5.8805084 4.5523906 13.108894 255 0 0
-5.814955 4.529236 13.042218 255 67 38
-5.7873893 4.5355654 13.060445 255 68 40
-5.755714 4.5387335 13.069568 255 66 42
-5.72478 4.542529 13.080498 255 66 48
-5.691043 4.5441346 13.08512 255 102 85
-5.629146 4.640507 13.362631 0 0 0
-5.3622413 4.63077 13.334593 0 0 0
-5.34423 4.646796 13.38074 0 0 0
-5.330091 4.666432 13.4372835 0 0 0
-5.3034816 4.6753473 13.462955 176 182 178
-5.288488 4.694699 13.51868 174 180 176
-4.2271376 4.9214745 14.171694 0 0 0
-4.1609936 4.8892617 14.078936 182 188 188
-4.1505003 4.922449 14.1745 185 191 191
-4.101681 4.9103794 14.139746 188 194 194
-4.076252 4.9263487 14.18573 191 197 197
-4.0497546 4.9413204 14.228842 183 189 189
-4.0355153 4.9716845 14.3162775 147 153 153
-3.995853 4.971016 14.314352 142 148 148
-3.955987 4.970078 14.311651 0 0 0
-3.9037008 4.953362 14.263515 0 0 0
-3.763889 4.873281 14.032918 0 0 0
-2.5893977 4.6908913 13.507715 255 0 0
-2.54196 4.671553 13.452029 255 153 146
-2.5045207 4.670292 13.448398 255 147 140
-2.4706917 4.675825 13.464332 255 160 149
-2.438106 4.6839147 13.487626 255 76 69
-2.408291 4.6976576 13.5272 255 77 71
-2.3900986 4.7348533 13.634306 80 86 84
-2.375546 4.7805514 13.765897 112 117 120
-2.360247 4.8261943 13.897328 0 0 0
-2.324855 4.831573 13.912817 122 127 131
-2.2214496 4.8548717 13.979908 0 0 0
-2.1655943 4.901396 14.113876 106 112 112
-2.124052 4.8945503 14.094165 104 108 107
-2.0729833 4.8650947 14.009345 103 107 106
-2.0316198 4.857736 13.988155 101 107 103
-1.9936352 4.8583293 13.989863 99 105 101
-1.9571117 4.862576 14.002092 95 101 97
-1.934549 4.9023705 14.116683 94 100 96
-1.8893408 4.88523 14.067327 95 101 97
-1.836359 4.949669 14.252881 94 99 95
-1.7921087 4.9350767 14.210863 0 0 0
-1.7299623 4.8694654 14.021931 86 92 88
-1.6991961 4.8912106 14.084547 83 89 85
-1.6684264 4.9139533 14.150036 86 92 88
-1.6272637 4.9064384 14.128397 82 89 81
-1.4337064 4.904726 14.123466 0 0 0
-1.3921494 4.894323 14.09351 83 90 82
-1.352431 4.8899755 14.080991 87 94 86
-1.2511145 4.9458284 14.241822 0 0 0
-1.1990626 4.892255 14.087554 0 0 0
-1.1667429 4.9183064 14.162571 85 92 84
-1.0108504 4.9130883 14.147546 90 95 89
-0.93259555 4.9082065 14.133488 0 0 0
-0.8943022 4.9100285 14.138735 96 98 95
-0.8612278 4.941963 14.230693 96 98 95
-0.8188607 4.9210725 14.170537 0 0 0
-0.7878705 4.969873 14.311061 0 0 0
-0.701151 4.910356 14.139678 101 107 105
-0.66840875 4.954085 14.265597 99 105 103
-0.62901866 4.9509063 14.256445 99 105 103
-0.58685523 4.924039 14.179078 0 0 0
-0.46635514 4.879564 14.05101 0 0 0
-0.38410738 4.8113217 13.854502 109 111 106
-0.3393092 4.714949 13.576992 85 90 84
-0.30180913 4.7087765 13.5592165 72 77 70
-0.26566014 4.724905 13.60566 255 99 92
-0.2301502 4.7594986 13.705275 255 75 68
-0.12628421 5.1029277 14.6942005 136 141 135
-0.08662545 5.1324835 14.779308 152 156 155
-0.04582386 5.086817 14.647808 150 156 154
0.14344373 4.7279906 13.614545 74 87 78
0.18057613 4.726037 13.608919 53 70 54
0.21776076 4.725884 13.6084795 48 66 44
0.25498343 4.7264814 13.610199 55 70 51
0.29273733 4.73552 13.636227 53 67 54
0.3312983 4.7540984 13.689724 255 152 144
1.966692 2.7207193 7.8344817 145 255 105
1.9828376 2.713514 7.8137336 147 255 105
1.9935018 2.699041 7.772057 144 255 102
2.0041366 2.6848333 7.7311454 146 255 102
2.015814 2.6723046 7.695069 148 255 104
2.0203176 2.6506224 7.632633 146 255 104
2.0227234 2.6266594 7.56363 146 255 104
2.017723 2.593661 7.4686093 143 255 101
2.0221345 2.5733008 7.409981 147 255 105
2.0207932 2.546096 7.331643 146 255 104
2.0076969 2.50476 7.212613 143 255 101
1.994022 2.4635131 7.0938406 143 255 101
1.9926145 2.4380703 7.0205765 140 255 98
1.9988667 2.4223955 6.9754395 140 255 99
2.0079415 2.4104052 6.9409127 140 255 99
2.0132854 2.3942027 6.8942566 139 255 98
2.0159535 2.3751478 6.839387 141 255 99
2.0143173 2.3514183 6.771056 139 255 97
2.0217607 2.3386238 6.7342134 142 255 100
2.0256941 2.3220365 6.6864495 143 255 99
2.0317159 2.308118 6.646371 144 255 99
2.0361195 2.2926245 6.6017556 143 255 98
2.0405347 2.277416 6.557962 142 255 97
2.0423067 2.2595477 6.5065093 146 255 102
2.0401173 2.2376432 6.443434 142 255 100
2.0432818 2.2219355 6.3982024 140 255 98
2.052658 2.2131922 6.3730254 140 255 96
2.0650783 2.20785 6.357642 143 255 100
2.0678213 2.192337 6.312972 142 255 99
2.0726519 2.179276 6.275362 141 255 96
2.0809216 2.1700158 6.2486963 144 255 99
2.089615 2.1613445 6.223727 145 255 103
2.0897696 2.1440525 6.1739335 143 255 101
2.0906312 2.1277573 6.1270103 144 255 102
2.0982513 2.1185446 6.1004815 144 255 103
2.1025603 2.1061604 6.064821 141 255 100
2.1073515 2.0944493 6.031098 145 255 103
2.1147044 2.0854461 6.0051727 142 255 98
2.1233423 2.0778391 5.9832683 144 255 98
2.1314957 2.069878 5.9603434 144 255 98
2.135926 2.0584495 5.927434 144 255 100
2.1439962 2.0506744 5.9050455 145 255 101
2.148031 2.0391848 5.87196 141 255 97
2.152989 2.0287352 5.8418703 144 255 100
2.1539278 2.0146804 5.8013983 142 255 97
2.1557097 2.0016136 5.763772 146 255 101
2.162984 1.9937992 5.7412696 147 255 100
2.1711488 1.9869125 5.721439 147 255 100
2.1780527 1.9789784 5.698592 147 255 97
2.1837416 1.9700608 5.6729136 143 255 93
2.1912136 1.9628664 5.652197 146 255 96
2.1934588 1.9511234 5.618382 150 255 100
2.19702 1.940706 5.5883846 147 255 98
2.199872 1.9298103 5.5570097 145 255 96
2.2062206 1.9221104 5.5348372 146 255 98
2.2101128 1.9123899 5.5068464 145 255 98
2.2162964 1.9047701 5.484905 152 255 104
2.2235494 1.8981656 5.4658866 148 255 99
2.229373 1.8904371 5.443632 148 255 101
2.2329211 1.8808944 5.4161534 146 255 99
2.2393894 1.873921 5.396073 146 255 99
2.2417974 1.8636633 5.366535 146 255 100
2.2440119 1.8533792 5.3369217 144 255 98
2.2418518 1.8396384 5.2973537 145 255 97
2.2494507 1.8340303 5.281205 145 255 97
2.2615225 1.8321173 5.2756968 145 255 97
2.2702415 1.8275299 5.262487 146 255 98
2.271941 1.8173848 5.2332735 148 255 102
2.2705462 1.8049073 5.197344 140 255 94
2.271219 1.7942182 5.1665635 143 255 255
2.2822974 1.7918304 5.159688 145 255 255
2.285556 1.7833704 5.135327 144 255 255
2.2895672 1.7755975 5.112944 137 255 255
2.2897828 1.7649928 5.0824075 125 255 255
2.300719 1.7627301 5.075892 114 255 255
2.3151035 1.7631205 5.077016 115 255 255
2.3309698 1.764628 5.081357 115 255 255
2.3461778 1.7656223 5.08422 116 255 255
2.359835 1.7654446 5.0837083 113 255 255
2.37457 1.7660707 5.085511 109 90 255
2.3880777 1.7657821 5.08468 110 90 255
2.4036696 1.767029 5.0882707 113 93 255
2.4188428 1.7679553 5.090938 109 89 255
2.4326882 1.7679063 5.090797 109 89 255
2.4428675 1.7652086 5.083029 109 91 255
2.4550078 1.7639505 5.079406 115 95 255
2.4698656 1.7646481 5.0814147 110 90 255
2.4876533 1.7674195 5.089395 112 90 255
2.5028725 1.7683452 5.092061 109 87 255
2.5180728 1.7692478 5.09466 107 85 255
2.5314584 1.768872 5.093578 114 92 255
2.5437076 1.7677109 5.0902343 109 87 255
2.55825 1.7681472 5.0914907 111 91 255
2.5744402 1.7697116 5.0959954 108 88 255
2.5928264 1.7727605 5.104775 107 87 255
2.6014466 1.7691355 5.0943365 115 93 255
2.614516 1.7685586 5.092675 110 88 255
2.62374 1.7654004 5.083581 108 86 255
2.6448774 1.7702492 5.0975437 113 91 255
2.6592114 1.7705176 5.098316 111 89 255
2.6780307 1.7737538 5.107635 109 87 255
2.692527 1.7741082 5.1086555 114 92 255
2.7092311 1.775906 5.1138325 115 93 255
2.7210672 1.7745106 5.1098146 112 88 255
2.7347076 1.7743003 5.109209 112 90 255
2.7481894 1.7739899 5.108315 106 84 255
2.7665536 1.7768183 5.1164594 109 87 255
2.7787564 1.7756808 5.113184 111 87 255
2.789472 1.7736092 5.1072187 114 90 255
2.7973466 1.7697607 5.096137 110 86 255
2.8132784 1.7710228 5.099771 107 83 255
2.827589 1.7712568 5.100445 113 89 255
2.8419597 1.7715259 5.1012197 113 91 255
2.8563135 1.7717818 5.101957 110 90 255
2.8749678 1.77469 5.110331 111 91 255
2.8968437 1.7795492 5.1243234 106 88 255
2.909164 1.7785197 5.121359 111 91 255
2.9295423 1.7824029 5.1325407 108 90 255
2.9464605 1.7841537 5.1375823 106 88 255
2.963646 1.7860491 5.14304 108 90 255
2.969482 1.781119 5.128844 109 91 255
2.9761662 1.7767417 5.116239 106 88 255
2.9833796 1.7727197 5.1046576 108 88 255
2.9974139 1.7727693 5.1048 107 87 255
3.0137596 1.7741791 5.10886 106 86 255
3.0340452 1.7778846 5.11953 105 85 255
3.046235 1.7768341 5.116505 111 89 255
3.0602794 1.7768698 5.1166077 110 88 255
3.0725303 1.7758685 5.1137247 110 86 255
3.0944731 1.7804528 5.1269255 108 84 255
3.1038773 1.7778139 5.1193266 109 85 255
3.119627 1.778817 5.1222153 107 84 255
3.1255417 1.7742283 5.1090016 106 86 255
3.1461294 1.7779725 5.119783 107 87 255
3.1594186 1.7775772 5.1186447 107 87 255
3.1785219 1.7804421 5.1268945 104 86 255
3.189651 1.7788348 5.1222663 108 89 255
3.204966 1.7795657 5.124371 112 93 255
3.2209044 1.780635 5.12745 112 93 255
3.2415128 1.7842655 5.137904 108 86 255
3.2565238 1.7847971 5.139435 111 89 255
3.2625797 1.780437 5.1268797 109 87 255
3.2679772 1.7757565 5.113402 108 89 255
3.2824447 1.7760231 5.11417 106 88 255
3.3110118 1.7838843 5.1368065 112 93 255
3.329983 1.7865307 5.1444273 107 88 255
3.333094 1.7806817 5.1275845 104 84 255
3.3262134 1.7695662 5.095577 107 87 255
3.3386776 1.7687919 5.093347 102 82 255
3.3600032 1.7726992 5.1045985 105 85 255
3.3812065 1.77651 5.115572 100 80 255
3.3948796 1.7763493 5.115109 105 85 255
3.412638 1.7783186 5.12078 106 84 255
3.4239678 1.7769358 5.116798 104 82 255
3.434316 1.7750568 5.1113873 107 85 255
3.4356737 1.768565 5.092694 105 83 255
3.446934 1.7672025 5.0887704 105 85 255
3.4420183 1.7575911 5.061094 102 82 255
3.449679 1.7544528 5.052057 102 84 255
3.4752579 1.7604162 5.0692286 100 82 255
3.5020027 1.7669203 5.087958 104 86 255
-7.6246743 4.783426 13.666624 66 51 32
-7.6182265 4.8029075 13.722285 68 53 34
-7.597197 4.8133435 13.752102 72 57 36
-7.5731564 4.821966 13.776737 75 60 39
-7.554704 4.834251 13.811836 81 66 43
-7.5210576 4.836888 13.819369 79 65 39
-7.486152 4.8387375 13.824654 76 62 36
-7.4507055 4.840254 13.828986 80 66 40
-7.4385614 4.8570013 13.876835 77 63 37
-7.411039 4.8638277 13.896338 79 65 39
-7.3578186 4.853772 13.867609 82 68 42
-7.2987204 4.8397145 13.827446 77 63 37
-7.2556624 4.8362026 13.817412 79 65 39
-7.2265286 4.8419833 13.833928 79 65 39
-7.1894984 4.8425064 13.8354225 80 66 40
-7.156008 4.8454313 13.84378 80 68 42
-7.1308403 4.8540535 13.868413 83 71 45
-7.1148424 4.869043 13.911239 83 71 47
-7.0717196 4.8655305 13.901204 79 67 45
-7.0318832 4.8642535 13.897555 81 66 45
-6.9914103 4.86252 13.892603 85 70 49
-6.9550786 4.8636637 13.89587 86 71 50
-6.919025 4.865015 13.899732 88 73 52
-6.8761077 4.861529 13.889771 87 72 49
-6.839999 4.8628445 13.89353 88 73 50
-6.8245664 4.8789563 13.939563 86 71 48
-6.798342 4.8874907 13.963946 92 77 54
-6.758798 4.8864913 13.961091 92 75 49
-6.7135897 4.8813624 13.946437 95 75 50
-6.676715 4.8822684 13.949026 101 79 55
-6.649269 4.8901196 13.971457 107 86 59
-6.6158266 4.8936257 13.981474 107 86 57
-6.5793133 4.8948874 13.98508 107 87 54
-6.5404897 4.894436 13.9837885 113 90 58
-6.5036077 4.89544 13.986658 111 88 54
-6.468793 4.898021 13.994033 107 88 55
-6.433338 4.9001465 14.000104 115 92 58
-6.3811865 4.889502 13.969693 120 100 67
-6.3175306 4.8698626 13.913581 156 140 117
-5.867737 4.578251 13.080423 255 66 40
-5.812237 4.5627446 13.03612 255 69 41
-5.780525 4.565837 13.044955 255 69 40
-5.754076 4.5731497 13.065848 255 72 46
-5.7299275 4.5823936 13.092259 255 69 49
-5.706842 4.5926094 13.121447 255 102 88
-5.6609073 4.58445 13.098134 255 167 158
-5.5968804 4.680582 13.372792 0 0 0
-5.3358283 4.708217 13.451747 0 0 0
-5.2846785 4.6954336 13.415224 153 157 156
-5.242185 4.6902165 13.400318 179 185 181
-5.219524 4.702795 13.436255 176 182 178
-5.1764 4.869484 13.912499 0 0 0
-4.4343834 4.807008 13.734 0 0 0
-4.417947 4.830073 13.799898 183 188 191
-4.2243795 4.9569674 14.162447 195 201 201
-4.1920857 4.9645596 14.184138 169 175 175
-4.143931 4.9533343 14.152066 153 159 159
-4.1074295 4.9559584 14.159563 0 0 0
-4.084339 4.974967 14.213873 169 174 177
-4.062009 4.9952765 14.271898 0 0 0
-4.023765 4.9962196 14.274593 187 192 195
-3.6246328 4.8283024 13.794841 0 0 0
-3.4992607 4.8636436 13.895813 0 0 0
-3.2674317 4.857734 13.878929 0 0 0
-2.5874796 4.724304 13.497709 255 0 0
-2.5396519 4.7040405 13.439815 255 151 149
-2.5020747 4.702448 13.435264 255 147 143
-2.4676738 4.7068653 13.4478855 255 155 148
-2.4288647 4.702882 13.436503 255 119 112
-2.4014049 4.721088 13.48852 255 95 88
-2.3862476 4.7644253 13.612338 64 69 63
-2.3732145 4.813443 13.752387 74 79 75
-2.350306 4.8436875 13.838797 124 128 129
-2.3287969 4.8778515 13.936406 0 0 0
-2.289353 4.8749614 13.928148 117 122 125
-2.1915462 4.911684 14.033069 0 0 0
-2.1616635 4.9310007 14.088258 108 114 112
-2.1114535 4.903808 14.010567 0 0 0
-2.0695999 4.895377 13.986479 0 0 0
-2.036135 4.906845 14.019243 100 106 102
-2.0007627 4.914068 14.03988 98 104 100
-1.9703102 4.9338927 14.09652 94 100 96
-1.9409864 4.9573913 14.163657 98 104 100
-1.8978472 4.9458427 14.130662 95 100 96
-1.8726801 4.9816227 14.232889 0 0 0
-1.8238279 4.9545784 14.155621 0 0 0
-1.7289846 4.905012 14.014006 87 94 87
-1.6891003 4.900412 14.000863 0 0 0
-1.6660943 4.945701 14.130258 87 94 87
-1.6370476 4.974782 14.213345 0 0 0
-1.5016664 4.913107 14.037133 80 87 79
-1.3860152 4.9111032 14.031409 88 95 87
-1.350485 4.9213657 14.060729 91 96 89
-1.3171012 4.94028 14.114769 89 94 87
-1.1633943 4.942784 14.121923 0 0 0
-1.1194476 4.9192605 14.054715 0 0 0
-1.0084437 4.939962 14.113861 90 95 88
-0.97368723 4.9593945 14.16938 0 0 0
-0.8958354 4.9571524 14.162974 0 0 0
-0.85332054 4.935123 14.100036 0 0 0
-0.74011815 4.9511724 14.145889 95 100 94
-0.70089406 4.9471846 14.134496 100 105 101
-0.6594025 4.925793 14.0733795 0 0 0
-0.62927616 4.9919105 14.262281 100 106 102
-0.3779637 4.771623 13.632903 255 113 108
-0.34003368 4.7622004 13.605982 255 100 93
-0.3018762 4.7468867 13.562229 60 65 58
-0.26528013 4.7552757 13.586198 89 94 87
-0.23006333 4.795143 13.700102 255 67 57
-0.12622401 5.1406336 14.687195 137 138 132
-0.0855578 5.1091194 14.597157 143 145 140
-0.045825418 5.127022 14.648306 0 0 0
0.14366318 4.7724876 13.635373 79 91 81
0.18042897 4.759347 13.597829 53 67 52
0.21761313 4.7598457 13.599255 52 69 50
0.25486094 4.7613883 13.603662 54 67 49
0.29279462 4.7737203 13.638895 51 63 49
0.33185285 4.7995315 13.71264 255 140 131
1.9786546 2.7290986 7.79725 149 255 107
1.9921886 2.718489 7.7669373 143 255 101
2.0024576 2.7036948 7.724669 146 255 104
2.010116 2.6857214 7.6733174 149 255 105
2.0136013 2.6626005 7.6072593 144 255 100
2.0149777 2.6371925 7.5346665 145 255 103
2.015167 2.6107602 7.459148 147 255 105
2.0185673 2.5889764 7.396909 146 255 104
2.0220876 2.567776 7.3363385 144 255 103
2.0067513 2.5232823 7.2092166 144 255 104
1.9895053 2.4772758 7.077772 142 255 101
1.9877815 2.4512968 7.003548 140 255 99
1.996967 2.4391382 6.96881 140 255 98
2.0081801 2.429663 6.941738 140 255 98
2.0142634 2.4142158 6.897605 137 255 95
2.021009 2.3998423 6.8565383 142 255 100
2.0216296 2.3785262 6.7956367 143 255 100
2.016257 2.3506114 6.715882 142 255 99
2.0213969 2.335345 6.6722646 141 255 98
2.0283582 2.3224373 6.6353865 141 255 96
2.0386758 2.3135672 6.610044 144 255 101
2.0439646 2.2991962 6.568985 145 255 102
2.0454862 2.280875 6.516639 141 255 99
2.0400856 2.2552173 6.4433336 142 255 100
2.0423431 2.2383926 6.3952637 146 255 104
2.0496998 2.2273939 6.36384 140 255 98
2.0627298 2.2226944 6.350413 146 255 104
2.0647929 2.206354 6.303727 142 255 100
2.0686803 2.192217 6.263337 138 255 96
2.0759199 2.181836 6.233677 143 255 101
2.0847392 2.1732705 6.2092047 142 255 99
2.085578 2.156591 6.16155 144 255 101
2.0856848 2.1394277 6.112513 146 255 104
2.0963972 2.1333296 6.095091 144 255 105
2.1008105 2.1209683 6.0597734 143 255 102
2.1045094 2.1080847 6.022964 142 255 100
2.1065025 2.0937054 5.9818816 143 255 98
2.1116633 2.082672 5.9503584 145 255 98
2.1200368 2.074952 5.928301 148 255 101
2.128514 2.067449 5.906865 144 255 96
2.1362472 2.0593424 5.883703 140 255 94
2.1453197 2.052638 5.8645487 142 255 96
2.1511037 2.04291 5.836755 141 255 95
2.155947 2.0324383 5.8068366 145 255 99
2.1556818 2.0173395 5.7636976 144 255 97
2.161199 2.0078313 5.736532 145 255 99
2.1685736 2.0001733 5.7146525 147 255 101
2.1725378 1.9895018 5.6841636 144 255 96
2.1775773 1.9799595 5.6569004 146 255 96
2.1852508 1.9729297 5.6368155 147 255 97
2.1904862 1.9638128 5.610768 149 255 99
2.1955612 1.9546795 5.5846734 147 255 96
2.1994545 1.944628 5.5559554 145 255 96
2.2054408 1.9365517 5.532881 146 255 97
2.2087142 1.9262198 5.5033617 148 255 99
2.2127573 1.9166942 5.476146 148 255 99
2.2212322 1.9111094 5.4601903 147 255 97
2.2273097 1.9035505 5.438594 148 255 99
2.2322426 1.89512 5.4145074 151 255 104
2.2330565 1.8833268 5.380813 144 255 97
2.236239 1.8736721 5.353229 144 255 98
2.2409372 1.865405 5.329609 147 255 101
2.2416956 1.853986 5.296984 147 255 98
2.247513 1.8468709 5.2766557 145 255 96
2.2521062 1.8388468 5.2537303 143 255 94
2.2619798 1.8352088 5.243336 145 255 96
2.2623136 1.8239251 5.2110977 144 255 95
2.2661338 1.815576 5.1872435 146 255 97
2.2674184 1.8053116 5.1579175 143 255 255
2.2766836 1.8014891 5.1469965 147 255 255
2.28099 1.793814 5.1250677 148 255 255
2.282856 1.7843249 5.0979567 140 255 255
2.2850654 1.7752178 5.071937 124 255 255
2.2953022 1.7724191 5.063941 116 255 255
2.3099477 1.7730379 5.065709 114 255 255
2.3274481 1.7758278 5.07368 116 255 255
2.34297 1.7770839 5.0772686 115 255 255
2.3565862 1.7768884 5.07671 114 255 255
2.3708727 1.7771975 5.0775933 109 90 255
2.3852255 1.7775525 5.0786076 112 92 255
2.4005198 1.7786009 5.081603 111 91 255
2.4150057 1.7790418 5.0828624 108 88 255
2.4287832 1.7789586 5.082625 110 90 255
2.440801 1.7775949 5.0787287 107 89 255
2.4529626 1.7763509 5.0751743 108 90 255
2.4682524 1.7773734 5.078096 112 92 255
2.4828382 1.7778803 5.079544 110 90 255
2.49709 1.7781438 5.080297 110 90 255
2.512204 1.7790147 5.082785 111 92 255
2.5303845 1.7820361 5.0914173 112 90 255
2.5440989 1.781896 5.0910172 110 90 255
2.5569673 1.7811681 5.0889378 109 89 255
2.5692523 1.780044 5.085726 110 88 255
2.5849116 1.7812573 5.0891924 114 92 255
2.5956597 1.7790912 5.083004 111 89 255
2.6093237 1.7789364 5.0825615 115 91 255
2.6239543 1.7794386 5.0839963 110 86 255
2.6459355 1.784894 5.0995827 112 88 255
2.661934 1.7862775 5.1035357 111 87 255
2.6739485 1.7849874 5.0998497 109 85 255
2.68807 1.7851098 5.100199 113 89 255
2.7012668 1.7846197 5.098799 114 88 255
2.7184813 1.7867757 5.104959 112 88 255
2.730515 1.7855216 5.101376 112 88 255
2.7459702 1.7865065 5.10419 113 91 255
2.7606583 1.7869848 5.1055565 112 90 255
2.7724588 1.7855986 5.101596 112 88 255
2.7827282 1.783245 5.0948715 111 87 255
2.7921903 1.7804 5.0867434 111 87 255
2.8082917 1.7817959 5.090731 110 86 255
2.8240407 1.7829554 5.094044 112 88 255
2.840177 1.784347 5.09802 113 91 255
2.8525715 1.7833855 5.095273 113 91 255
2.868455 1.7846041 5.0987544 108 89 255
2.884765 1.7860749 5.102957 107 89 255
2.9002635 1.7870318 5.1056905 108 88 255
2.921234 1.7913346 5.1179843 106 88 255
2.939837 1.7941519 5.1260333 111 93 255
2.9590893 1.7973368 5.135133 108 90 255
2.9701915 1.7955645 5.1300693 108 88 255
2.9775922 1.7915819 5.1186905 109 89 255
2.984742 1.7874861 5.1069884 109 90 255
2.995387 1.785512 5.1013484 107 88 255
3.0140872 1.7883356 5.1094155 110 91 255
3.028799 1.7887775 5.110678 109 90 255
3.0409076 1.7876849 5.107557 111 89 255
3.0544946 1.7874677 5.106936 108 86 255
3.072622 1.7898972 5.1138773 107 85 255
3.0937262 1.794031 5.125688 112 88 255
3.1031828 1.7914037 5.118181 105 81 255
3.115787 1.7906086 5.11591 108 85 255
3.124385 1.7875289 5.107111 109 87 255
3.1446402 1.791116 5.1173596 111 89 255
3.1535888 1.7882601 5.1092 106 87 255
3.1649585 1.7867961 5.105017 107 89 255
3.1797156 1.7872488 5.106311 105 88 255
3.1953979 1.7882155 5.1090727 106 89 255
3.2125843 1.7900119 5.114205 106 89 255
3.22512 1.7892126 5.1119213 107 88 255
3.243461 1.7916267 5.1188188 108 86 255
3.2582893 1.7920884 5.1201377 105 83 255
3.2686582 1.7901037 5.114467 104 85 255
3.2803528 1.7888589 5.110911 106 86 255
3.3082328 1.7964135 5.132495 107 88 255
3.327613 1.7993085 5.140766 104 84 255
3.3361208 1.7963247 5.1322412 108 88 255
3.329351 1.7851741 5.1003833 106 86 255
3.3445477 1.785846 5.1023026 103 83 255
3.3624506 1.787951 5.108317 108 86 255
3.3800516 1.7898788 5.113825 104 84 255
3.3833086 1.7842262 5.097675 101 81 255
3.4040165 1.7877853 5.1078434 104 84 255
3.4171033 1.787329 5.1065397 104 82 255
3.428874 1.7861907 5.1032877 106 83 255
3.4285264 1.7787747 5.0820994 106 84 255
3.4389098 1.7769634 5.0769243 105 85 255
3.449971 1.7755153 5.0727873 105 87 255
3.4627256 1.774947 5.0711637 105 87 255
-7.5435243 4.7929454 13.5877285 66 53 36
-7.5644617 4.8300247 13.692846 66 53 34
-7.5299554 4.831895 13.698149 70 57 38
-7.5514803 4.8699183 13.805943 75 63 41
-7.479035 4.8474183 13.742156 72 60 38
-7.44745 4.851308 13.753182 73 61 37
-7.383159 4.8338237 13.703616 77 65 41
-7.334996 4.8267746 13.683632 70 58 34
-7.3667374 4.872503 13.81327 76 64 40
-7.310109 4.859952 13.777689 81 70 48
-7.254215 4.847762 13.743131 78 67 45
-7.2241225 4.8527775 13.757349 78 67 45
-7.209642 4.868387 13.801601 83 72 50
-7.171541 4.8681273 13.800865 71 63 40
-7.1353784 4.869188 13.803871 74 66 43
-7.1049805 4.8742137 13.81812 78 70 47
-7.0785604 4.882037 13.840299 81 73 52
-7.028888 4.8738217 13.817008 82 74 55
-6.9989343 4.879264 13.832437 78 67 47
-6.97958 4.8921947 13.869095 79 68 50
-6.9470835 4.8960047 13.879896 81 70 52
-6.890395 4.882714 13.8422165 80 69 51
-6.8465242 4.878409 13.830012 77 66 46
-6.817943 4.8850107 13.848729 74 63 43
-6.799398 4.898918 13.888155 83 72 52
-6.77833 4.911153 13.92284 89 78 58
-6.7346334 4.907038 13.911176 88 75 56
-6.691852 4.903548 13.90128 93 80 61
-6.6606226 4.9085307 13.915406 98 83 64
-6.6210375 4.9073772 13.912137 92 77 56
-6.586028 4.9096217 13.9185 100 85 64
-6.5734186 4.9286876 13.97255 106 91 68
-6.539871 4.9321856 13.982467 106 92 66
-6.504136 4.934065 13.987795 93 78 55
-6.4479785 4.9203825 13.949005 82 59 41
-6.4003477 4.9130826 13.92831 67 55 33
-6.342266 4.897625 13.884489 55 43 31
-5.963916 4.66123 13.214323 0 0 0
-5.8554583 4.604343 13.053052 255 97 73
-5.8085027 4.595417 13.027746 255 70 39
-5.7737927 4.596128 13.029762 255 70 38
-5.753804 4.6086392 13.065231 255 70 44
-5.7330246 4.6206694 13.099336 255 90 70
-5.730255 4.6474576 13.175279 255 99 84
-5.558971 4.7159724 13.369514 0 0 0
-5.3538094 4.760969 13.497078 0 0 0
-5.2633147 4.7129664 13.360992 0 0 0
-5.2421327 4.726791 13.400185 0 0 0
-5.2454634 4.7630687 13.50303 174 180 176
-5.2981825 4.879596 13.833379 174 180 178
-5.265095 4.8839726 13.845785 175 181 179
-5.169741 4.8302345 13.693441 176 182 182
-4.570058 4.829262 13.690683 182 187 190
-4.5348015 4.871776 13.81121 185 190 193
-4.454272 4.866269 13.795597 185 189 190
-4.4447556 4.8973246 13.883637 189 193 194
-4.438367 4.9323907 13.9830475 190 196 196
-4.427491 4.9630356 14.069925 196 200 201
-4.384672 4.958097 14.055924 193 199 199
-4.348444 4.96059 14.062991 194 200 200
-4.307914 4.9581757 14.056147 177 181 182
-4.2860303 4.9773726 14.110569 154 158 159
-4.245707 4.975309 14.104719 153 157 158
-4.2207203 4.9913445 14.150179 176 180 181
-4.1773987 4.985794 14.134444 0 0 0
-4.089001 4.9722457 14.096035 182 187 190
-4.0366263 5.002822 14.182716 0 0 0
-3.6323192 4.876321 13.824094 0 0 0
-3.5996041 4.8831916 13.843572 179 184 188
-2.5833685 4.7536273 13.476264 255 0 0
-2.5389311 4.7394247 13.436001 255 153 151
-2.5013638 4.7378182 13.431446 255 145 141
-2.467774 4.7438097 13.448431 255 156 149
-2.425002 4.7320647 13.415135 255 143 136
-2.3952868 4.7458286 13.454155 255 142 135
-2.372401 4.7737637 13.53335 255 68 61
-2.3531287 4.8099704 13.635993 59 64 58
-2.3525546 4.886177 13.8520355 120 124 123
-2.2942972 4.9236355 13.958228 0 0 0
-2.1387284 4.916776 13.938782 0 0 0
-2.0285778 4.926804 13.96721 104 109 105
-1.9975039 4.944371 14.017012 102 107 103
-1.9681089 4.9668617 14.080771 99 105 101
-1.9270079 4.9601183 14.061654 0 0 0
-1.8959198 4.979398 14.116311 0 0 0
-1.7197062 4.9167833 13.938802 91 96 90
-1.6545634 4.9498215 14.032463 0 0 0
-1.49771 4.938423 14.00015 0 0 0
-1.4629705 4.9503384 14.033929 0 0 0
-1.4196863 4.933204 13.985354 0 0 0
-1.3746363 4.9088154 13.916214 0 0 0
-1.3418715 4.928158 13.971048 0 0 0
-1.312681 4.962145 14.067399 97 100 93
-1.0766392 4.9374995 13.997531 0 0 0
-1.0012372 4.9429564 14.013001 0 0 0
-0.73474926 4.9536347 14.043274 95 100 93
-0.7002275 4.981071 14.121054 0 0 0
-0.6220386 4.9730253 14.098246 0 0 0
-0.41991055 4.8631935 13.786878 100 102 97
-0.37831953 4.8134074 13.645738 255 100 93
-0.33979827 4.796061 13.596561 255 117 110
-0.3018806 4.784021 13.5624275 56 61 54
-0.2649771 4.786931 13.570678 83 86 77
-0.22948584 4.8204536 13.665712 255 67 56
-0.12469871 5.1181674 14.509714 134 134 124
-0.085126385 5.1230483 14.523551 136 137 129
0.14386596 4.8165402 13.654618 255 83 72
0.18065487 4.802513 13.614853 57 71 54
0.21762985 4.7973795 13.600299 52 69 50
0.25474575 4.7963963 13.597512 54 67 49
0.2924429 4.8052144 13.622511 53 66 49
0.33210254 4.840646 13.722957 255 124 113
1.9797668 2.7519538 7.801633 146 255 103
1.9938056 2.7419388 7.7732415 147 255 102
2.0037048 2.7265024 7.72948 146 255 101
2.0023508 2.6962354 7.6436744 147 255 103
2.0067265 2.6742287 7.581287 146 255 102
2.012624 2.6546793 7.525865 147 255 103
2.0141728 2.6298473 7.455468 146 255 102
2.0165973 2.6066444 7.3896894 146 255 102
2.0176685 2.58217 7.320306 144 255 101
2.0132296 2.551194 7.23249 142 255 101
2.0028124 2.5133173 7.1251125 143 255 103
1.9946841 2.4790154 7.0278683 140 255 99
1.9993072 2.4610639 6.976977 136 255 94
2.0020068 2.4411063 6.920398 142 255 100
2.012378 2.4307888 6.8911486 138 255 96
2.025204 2.4236007 6.8707705 141 255 99
2.0268092 2.4032395 6.813048 141 255 99
2.0216637 2.3753173 6.73389 140 255 98
2.0179179 2.3495288 6.660781 138 255 96
2.0243442 2.3359394 6.622256 140 255 97
2.030061 2.3217793 6.5821123 146 255 103
2.0368168 2.3090453 6.546013 142 255 100
2.0399504 2.2924628 6.4990025 142 255 100
2.0412352 2.274107 6.4469647 144 255 101
2.047137 2.2611651 6.410275 141 255 99
2.0583527 2.2542622 6.3907056 143 255 101
2.0711598 2.2492037 6.376365 142 255 101
2.0712845 2.2305722 6.323546 140 255 99
2.0720248 2.2129061 6.2734637 144 255 103
2.0761008 2.1990635 6.2342205 144 255 102
2.0872736 2.192902 6.216753 146 255 103
2.088975 2.1769698 6.171586 142 255 100
2.0921843 2.1628513 6.1315613 144 255 102
2.1001127 2.1537974 6.1058936 139 255 98
2.1091511 2.1460154 6.083832 143 255 101
2.1113715 2.1314723 6.042603 144 255 101
2.1095061 2.1130621 5.9904113 144 255 101
2.1116939 2.0989642 5.9504447 146 255 101
2.123577 2.0946453 5.9382005 143 255 96
2.1313508 2.0863688 5.914737 146 255 99
2.1358967 2.075081 5.8827376 144 255 97
2.1405091 2.0640264 5.851398 142 255 95
2.1506495 2.0584266 5.8355227 145 255 98
2.1542664 2.0467112 5.80231 146 255 99
2.1563118 2.033685 5.7653813 146 255 97
2.1588907 2.0213473 5.730405 147 255 99
2.1683884 2.0156186 5.7141647 147 255 101
2.1734133 2.0058439 5.686454 144 255 96
2.1798544 1.9975058 5.6628156 143 255 95
2.1852953 1.9883752 5.636931 147 255 99
2.1899788 1.978688 5.6094685 150 255 102
2.1955066 1.969893 5.584535 147 255 98
2.199252 1.9596312 5.5554433 146 255 98
2.2036467 1.9500848 5.52838 148 255 100
2.209196 1.9416832 5.504562 146 255 98
2.215059 1.9336692 5.4818425 144 255 94
2.223264 1.9277933 5.4651847 147 255 95
2.2297416 1.9205081 5.444532 148 255 99
2.2330623 1.9106185 5.4164953 144 255 95
2.2325585 1.8976086 5.379613 149 255 102
2.233858 1.8862916 5.34753 147 255 101
2.2422419 1.8810647 5.3327117 145 255 99
2.2455397 1.8716662 5.3060675 144 255 96
2.2515874 1.8646656 5.2862215 144 255 95
2.2518182 1.8529679 5.253059 143 255 94
2.2589579 1.8470672 5.236331 143 255 92
2.2590218 1.8354918 5.203515 144 255 93
2.2658458 1.8295195 5.186584 145 255 93
2.2696292 1.8211818 5.162947 147 255 255
2.277588 1.8162766 5.149041 147 255 255
2.2807198 1.807606 5.1244607 144 255 255
2.2839992 1.7991575 5.1005096 141 255 255
2.2896042 1.7926323 5.082011 125 255 255
2.3019419 1.7914253 5.0785894 116 255 255
2.315531 1.791201 5.0779533 113 255 255
2.331966 1.7931676 5.0835285 114 255 255
2.3459356 1.7932265 5.0836954 114 255 255
2.3604896 1.7937286 5.085119 113 255 255
2.3740344 1.7934624 5.0843644 109 90 255
2.3889298 1.7942138 5.0864944 111 92 255
2.402425 1.793911 5.085636 108 89 255
2.4168773 1.7943221 5.0868015 114 92 255
2.4276137 1.7919856 5.080178 115 93 255
2.4402158 1.7910451 5.0775113 113 94 255
2.452436 1.7898364 5.0740848 110 91 255
2.4693518 1.792049 5.0803576 113 94 255
2.4828339 1.7917589 5.079535 109 90 255
2.4974837 1.7923101 5.0810976 110 91 255
2.513459 1.7938012 5.085325 111 92 255
2.5329657 1.7977822 5.0966105 113 91 255
2.5478444 1.798453 5.098512 115 93 255
2.5599506 1.79717 5.0948753 112 90 255
2.5699997 1.7944646 5.0872054 109 87 255
2.5835233 1.7942014 5.086459 117 93 255
2.5964308 1.7935152 5.084514 113 89 255
2.6104956 1.7936317 5.084844 112 88 255
2.6261737 1.7948494 5.0882964 112 88 255
2.6465833 1.7992711 5.1008315 115 91 255
2.6625538 1.8006443 5.1047244 108 86 255
2.6712646 1.7971191 5.094731 112 90 255
2.6834986 1.7959884 5.0915256 110 86 255
2.701321 1.7985902 5.0989013 113 90 255
2.7199588 1.8017056 5.1077332 110 88 255
2.7344027 1.8020253 5.1086397 114 92 255
2.747818 1.8016672 5.1076245 112 90 255
2.7633398 1.802687 5.1105156 111 89 255
2.7736852 1.8003367 5.1038527 111 89 255
2.7827327 1.7971716 5.0948796 110 88 255
2.794105 1.7955321 5.090232 108 86 255
2.8105628 1.7971605 5.094848 110 86 255
2.827827 1.799286 5.100874 112 90 255
2.84405 1.8007314 5.1049714 108 86 255
2.858341 1.8009455 5.1055784 109 87 255
2.8726277 1.8011547 5.1061716 113 91 255
2.8869028 1.8013548 5.1067386 109 89 255
2.901012 1.8014498 5.107008 109 89 255
2.922537 1.8061268 5.1202674 107 87 255
2.9398282 1.8081554 5.126018 109 89 255
2.9563315 1.8096823 5.130347 107 87 255
2.9663165 1.8072236 5.1233764 107 87 255
2.977701 1.8056366 5.1188774 112 92 255
2.990386 1.8048494 5.116646 106 87 255
2.999362 1.8018414 5.108118 112 93 255
3.015419 1.8030952 5.111673 107 88 255
3.0269341 1.8016344 5.1075315 108 89 255
3.043248 1.80303 5.111488 105 85 255
3.056682 1.8027145 5.1105933 107 87 255
3.0777082 1.8068589 5.1223426 110 88 255
3.0990906 1.811174 5.134576 108 85 255
3.10449 1.8061516 5.1203375 111 88 255
3.112772 1.8028436 5.1109595 109 87 255
3.1212687 1.7996892 5.102017 105 85 255
3.1417885 1.8034643 5.112719 106 86 255
3.1496565 1.7999756 5.102829 106 86 255
3.1616516 1.798866 5.0996833 110 92 255
3.1765823 1.799429 5.1012793 106 88 255
3.2018414 1.8058122 5.119375 107 90 255
3.2159376 1.8058714 5.119543 105 86 255
3.2297504 1.8057717 5.1192603 105 86 255
3.2419753 1.8047888 5.116474 106 84 255
3.2578442 1.8058344 5.119438 108 86 255
3.270169 1.8049148 5.1168313 108 86 255
3.2854018 1.8056012 5.1187773 109 87 255
3.3064835 1.8094828 5.1297812 110 88 255
3.327117 1.8130872 5.1399994 102 83 255
3.3322823 1.8082676 5.126336 106 87 255
3.3340275 1.80164 5.1075473 105 87 255
3.3439813 1.799485 5.101438 106 88 255
3.3560393 1.7984756 5.0985765 107 89 255
3.3737593 1.8004962 5.104305 106 88 255
3.3822734 1.7976074 5.096115 105 85 255
3.4047627 1.8021394 5.108963 104 84 255
3.4226763 1.8042223 5.114868 103 85 255
3.436382 1.8040792 5.1144624 103 85 255
3.4407196 1.799039 5.1001735 99 81 255
3.4488602 1.7960198 5.0916142 103 85 255
3.4552157 1.792099 5.080499 103 85 255
3.4628706 1.7888808 5.071376 101 86 255
3.4700541 1.7854459 5.061638 101 86 255
3.4779518 1.7824042 5.0530148 101 86 255
-7.3943276 4.688391 13.189139 0 0 0
-7.551621 4.8352633 13.602312 52 49 32
-7.487887 4.8181725 13.554234 51 48 31
-7.537426 4.8741612 13.711739 47 41 25
-7.4457445 4.8389316 13.612632 49 42 26
-7.4785624 4.884665 13.741287 45 38 22
-7.3624935 4.8331237 13.596293 43 36 18
-7.286562 4.807541 13.524325 45 40 20
-7.2626853 4.8162174 13.548734 41 39 18
-7.2644444 4.84207 13.621461 43 41 20
-7.233434 4.8462343 13.633176 35 32 13
-7.186144 4.8394785 13.61417 39 36 17
-7.149946 4.840161 13.61609 40 37 20
-7.1514435 4.866502 13.690191 41 38 21
-7.139443 4.8838863 13.739096 41 38 21
-7.115574 4.8932924 13.765557 46 45 27
-7.069462 4.8874216 13.749042 44 41 22
-7.03589 4.890204 13.756868 45 42 25
-6.9804864 4.8777604 13.721863 47 44 27
-6.9625096 4.8914766 13.760448 47 44 27
-6.950816 4.9097795 13.811938 48 45 28
-6.9178696 4.913189 13.821528 49 46 29
-6.8500423 4.8917265 13.761151 47 44 29
-6.8187013 4.896226 13.773809 52 49 32
-6.7837114 4.8981414 13.779198 48 43 24
-6.769059 4.9148445 13.826186 48 41 22
-6.7119827 4.900759 13.786562 50 44 22
-6.683604 4.9075866 13.805768 58 50 31
-6.6483955 4.9094486 13.811007 58 50 31
-6.629278 4.9232817 13.849921 57 49 30
-6.571442 4.908354 13.807927 62 54 35
-6.562686 4.9301243 13.86917 62 54 35
-6.5462227 4.946324 13.914742 69 61 42
-6.532891 4.965093 13.967543 74 66 45
-6.4620414 4.940111 13.897265 84 76 57
-6.3954644 4.91812 13.835401 101 95 81
-6.342518 4.906411 13.802463 115 116 100
-6.2916565 4.896185 13.773694 149 143 129
-6.0437093 4.7601905 13.391122 163 172 151
-5.861183 4.644552 13.065814 255 0 0
-5.8097525 4.6320167 13.030549 255 69 40
-5.7721205 4.630395 13.025988 255 70 41
-5.7427945 4.6354585 13.040232 255 71 44
-5.7295637 4.6536574 13.091428 255 96 76
-5.740457 4.6918025 13.198736 255 96 80
-5.765522 4.742086 13.340191 165 173 160
-5.499109 4.7324367 13.3130455 0 0 0
-5.2864084 4.8036447 13.513365 0 0 0
-5.265629 4.8184237 13.55494 0 0 0
-5.2333 4.8227696 13.567165 171 176 172
-5.1970754 4.8235607 13.569391 181 186 182
-5.169743 4.8326764 13.595035 176 181 177
-5.134348 4.8343325 13.599693 173 179 177
-4.626177 4.847072 13.635532 178 184 184
-4.623097 4.883179 13.737107 183 187 188
-4.626091 4.926347 13.858543 185 191 191
-4.5848403 4.9227204 13.848343 187 193 191
-4.5366645 4.9115376 13.816883 195 201 201
-4.4996524 4.912354 13.81918 197 203 203
-4.469836 4.921107 13.843803 177 181 182
-4.44895 4.9399242 13.896739 148 152 153
-4.439327 4.9716797 13.986072 149 155 155
-4.414602 4.986927 14.028965 146 150 151
-4.369496 4.9792166 14.007274 148 154 154
-4.3248434 4.971891 13.986666 182 188 188
-4.2972674 4.984241 14.021409 188 194 194
-4.263198 4.9892144 14.035399 188 194 194
-4.230766 4.996211 14.055082 0 0 0
-4.086498 4.960963 13.955924 0 0 0
-3.6129935 4.887955 13.750543 0 0 0
-3.41324 4.87103 13.7029295 0 0 0
-3.2584507 4.8635745 13.681956 0 0 0
-3.1967006 4.8267946 13.578488 0 0 0
-3.2076693 4.90024 13.785102 0 0 0
-2.8678694 4.964167 13.964938 0 0 0
-2.5860894 4.7955017 13.490457 255 0 0
-2.5350397 4.7688236 13.415407 255 98 99
-2.499159 4.7703166 13.419608 255 143 139
-2.4676986 4.7804165 13.44802 255 127 120
-2.433144 4.784738 13.460177 255 127 120
-2.390049 4.772139 13.424735 255 161 154
-2.3582945 4.782144 13.45288 255 77 70
-2.33875 4.817617 13.5526705 255 62 56
-2.20018 4.9219074 13.846055 0 0 0
-2.1724334 4.944881 13.910684 0 0 0
-2.0182142 4.93961 13.895855 0 0 0
-1.9726374 4.9206495 13.842517 0 0 0
-1.9478359 4.953784 13.935729 99 105 101
-1.7497894 4.9322977 13.875284 92 97 91
-1.7308223 4.986904 14.028901 92 97 91
-1.3007842 4.955269 13.939906 0 0 0
-0.7278194 4.9449306 13.910823 0 0 0
-0.41869622 4.8866987 13.747008 255 98 91
-0.3787575 4.8563156 13.661535 255 97 90
-0.3403147 4.8405647 13.617226 255 90 83
-0.30170307 4.81825 13.554452 0 0 0
-0.26442593 4.813984 13.54245 0 0 0
-0.22826155 4.8318844 13.592807 255 79 68
-0.16064063 5.0413427 14.182045 134 134 122
-0.12367621 5.1155276 14.390738 130 130 118
-0.08466299 5.1346354 14.44449 122 122 110
0.14420415 4.8652673 13.686718 255 91 80
0.18057138 4.837485 13.6085615 57 70 53
0.21740791 4.8296175 13.58643 56 71 52
0.25443813 4.82772 13.581093 53 66 48
0.29211426 4.837002 13.6072035 54 65 49
0.33047187 4.854197 13.655576 255 121 110
1.9808446 2.7747846 7.80588 150 255 105
1.9926169 2.761535 7.768607 148 255 101
2.0021126 2.745443 7.7233386 147 255 102
1.9992056 2.7128568 7.631668 145 255 103
2.002633 2.6894503 7.565822 145 255 103
2.0125768 2.6751838 7.5256886 145 255 103
2.0194585 2.6571772 7.4750333 145 255 103
2.0139966 2.6234522 7.38016 146 255 104
2.0188863 2.6037462 7.324724 143 255 101
2.0177953 2.57679 7.2488923 143 255 102
2.015048 2.548263 7.168642 143 255 102
2.0061295 2.5125566 7.068194 140 255 99
2.0003698 2.4814494 6.9806848 141 255 100
1.9999158 2.4574497 6.9131703 143 255 102
2.0062313 2.4421394 6.8701 138 255 97
2.0154333 2.4305944 6.837622 141 255 100
2.0234292 2.41782 6.801686 140 255 99
2.0220525 2.3941808 6.7351856 143 255 101
2.025616 2.3767645 6.686191 141 255 99
2.0201213 2.3491263 6.608441 145 255 103
2.0262067 2.3353248 6.569615 140 255 99
2.0315921 2.3209662 6.529222 143 255 102
2.0387056 2.3088143 6.4950366 142 255 100
2.0412917 2.2917893 6.447143 141 255 98
2.0462775 2.277727 6.407583 141 255 98
2.0548592 2.2678716 6.379859 141 255 99
2.0632815 2.258008 6.3521113 144 255 103
2.0678961 2.2441764 6.313201 140 255 99
2.069559 2.2273972 6.2659984 142 255 101
2.0733511 2.2131658 6.2259636 139 255 98
2.0818791 2.2041805 6.2006865 141 255 99
2.0841746 2.1887946 6.157404 145 255 103
2.0910623 2.1784394 6.128273 143 255 101
2.1001203 2.170492 6.1059155 144 255 101
2.106982 2.1604178 6.077575 143 255 100
2.1105504 2.1471505 6.0402527 144 255 99
2.1102982 2.1302328 5.9926605 144 255 99
2.1165664 2.120107 5.9641747 149 255 102
2.1226206 2.1099226 5.9355254 145 255 100
2.1278799 2.0991092 5.905105 143 255 96
2.129985 2.0853703 5.866456 141 255 92
2.1372623 2.0768628 5.8425226 143 255 94
2.1465993 2.0704677 5.8245325 143 255 93
2.1502106 2.0586853 5.7913866 148 255 98
2.1503944 2.043817 5.7495604 146 255 97
2.1537807 2.0321863 5.716841 147 255 98
2.1648479 2.027918 5.7048345 146 255 100
2.1720636 2.0201292 5.682923 144 255 98
2.1788628 2.012066 5.6602397 146 255 100
2.1805394 1.9994193 5.624663 147 255 101
2.183396 1.9880242 5.592607 143 255 97
2.1869562 1.9774235 5.5627856 147 255 99
2.1921782 1.9684618 5.537575 144 255 96
2.1967564 1.9590484 5.5110936 146 255 99
2.205167 1.953158 5.494523 148 255 101
2.2128909 1.946743 5.4764767 148 255 99
2.220111 1.939974 5.457434 147 255 98
2.2218013 1.9284955 5.4251437 148 255 99
2.2228637 1.9166278 5.391758 146 255 97
2.2234135 1.9044772 5.357577 149 255 100
2.2268047 1.8949038 5.330645 144 255 95
2.2364423 1.8907355 5.318919 150 255 99
2.2422037 1.883365 5.298185 150 255 99
2.2482066 1.8762908 5.278284 146 255 96
2.2476535 1.8638703 5.2433434 148 255 98
2.2507753 1.8546352 5.217364 144 255 95
2.2532384 1.8449769 5.1901937 146 255 97
2.2611575 1.8398792 5.175853 143 255 94
2.271499 1.8368033 5.1672 145 255 255
2.276113 1.829163 5.1457067 143 255 255
2.2822382 1.8228234 5.1278725 144 255 255
2.282974 1.8122829 5.0982203 138 255 255
2.289831 1.8066998 5.0825143 122 255 255
2.2991054 1.8030802 5.072332 117 255 255
2.3122227 1.8024995 5.0706983 114 255 255
2.3294466 1.805108 5.0780363 115 255 255
2.3439329 1.8055768 5.0793552 115 255 255
2.3584704 1.8060794 5.080769 113 255 255
2.3710153 1.805059 5.0778985 112 93 255
2.3856738 1.8056502 5.0795617 111 92 255
2.3983622 1.8047522 5.0770354 111 92 255
2.4119003 1.8045001 5.0763264 112 90 255
2.4239101 1.803114 5.0724273 110 87 255
2.437348 1.8028 5.0715437 113 90 255
2.44925 1.8013601 5.067493 110 88 255
2.4643986 1.8023107 5.070167 113 91 255
2.4781363 1.8022244 5.0699244 113 92 255
2.4929924 1.802948 5.07196 115 93 255
2.5101106 1.8052906 5.07855 113 91 255
2.5272496 1.8076222 5.085109 115 93 255
2.542783 1.8087862 5.0883837 112 90 255
2.555901 1.8082289 5.086816 115 93 255
2.5674818 1.8065957 5.0822215 116 94 255
2.5790875 1.8049977 5.077726 113 89 255
2.5915504 1.8040134 5.074957 113 89 255
2.6074188 1.8053975 5.0788507 114 90 255
2.6234012 1.8068455 5.0829244 112 88 255
2.642056 1.8101094 5.092106 115 91 255
2.6555774 1.8098403 5.091349 110 88 255
2.6658776 1.8073902 5.0844564 110 88 255
2.6789896 1.8068619 5.08297 111 89 255
2.6974888 1.8099537 5.091668 110 88 255
2.7159271 1.8129733 5.1001625 110 88 255
2.7294471 1.8126954 5.099381 113 91 255
2.7430866 1.8124995 5.0988297 107 85 255
2.757366 1.8127263 5.0994678 111 89 255
2.7703314 1.8120911 5.097681 108 86 255
2.7789178 1.8086125 5.087895 112 90 255
2.7924387 1.8083639 5.087196 109 85 255
2.8042703 1.8070292 5.0834413 112 88 255
2.8217812 1.8093494 5.089968 106 84 255
2.834911 1.8088516 5.0885677 108 86 255
2.854318 1.8123441 5.0983925 111 89 255
2.865777 1.8107805 5.093994 109 87 255
2.8851752 1.8142245 5.1036825 105 86 255
2.8992164 1.814283 5.103847 110 88 255
2.9171784 1.8167827 5.110879 109 85 255
2.9309275 1.8166474 5.1104984 112 88 255
2.9436364 1.8158716 5.108316 111 89 255
2.9558716 1.8148124 5.105336 109 87 255
2.9611936 1.8095385 5.0905 107 87 255
2.979242 1.8120545 5.097578 108 89 255
2.9961545 1.8138595 5.1026554 109 90 255
3.0173516 1.8182296 5.114949 106 84 255
3.0242267 1.8139688 5.102963 106 84 255
3.0356686 1.8124738 5.0987573 105 85 255
3.043717 1.8089756 5.0889163 106 86 255
3.0702095 1.8164213 5.1098623 107 87 255
3.0916774 1.8208402 5.1222935 105 85 255
3.105998 1.8210291 5.1228247 108 88 255
3.1088495 1.814522 5.1045194 108 89 255
3.119059 1.8123485 5.098405 105 87 255
3.1361673 1.814185 5.1035714 104 86 255
3.150183 1.8142244 5.103682 104 84 255
3.1580563 1.8107414 5.093884 107 87 255
3.1727757 1.8111972 5.095166 108 90 255
3.1936264 1.8151337 5.1062403 105 87 255
3.2142735 1.8189207 5.116894 108 89 255
3.2187355 1.8135558 5.1018014 109 90 255
3.2305586 1.8123667 5.0984564 108 86 255
3.2475774 1.8140903 5.103305 106 84 255
3.262108 1.8144151 5.1042185 110 88 255
3.2793221 1.8162231 5.109305 109 87 255
3.2905807 1.8147317 5.105109 110 88 255
3.3132653 1.8195274 5.1186004 105 86 255
3.3233635 1.8174 5.1126156 106 89 255
3.3331547 1.8151231 5.10621 107 90 255
3.3390374 1.8107456 5.093896 101 86 255
3.3508096 1.8095852 5.0906315 107 92 255
3.3654084 1.8099545 5.0916705 103 85 255
3.384029 1.8124747 5.09876 104 86 255
3.4025145 1.8149024 5.1055894 104 86 255
3.4199202 1.8167366 5.1107492 100 82 255
3.4368868 1.8183235 5.1152134 107 89 255
3.444531 1.8149854 5.105823 106 88 255
3.4445004 1.8076466 5.085178 104 86 255
3.4502494 1.8033876 5.073197 105 87 255
3.4742997 1.8086903 5.088114 104 86 255
3.4816217 1.8052768 5.078511 98 80 255
3.4870348 1.8009045 5.066211 101 83 255
-7.49161 4.810039 13.428117 47 46 28
-7.4389133 4.799716 13.399299 46 43 26
-7.5593395 4.901545 13.683574 48 45 30
-7.475079 4.871007 13.59832 58 54 42
-7.4614143 4.8863955 13.64128 49 45 33
-7.435827 4.894091 13.662764 62 59 44
-7.3266325 4.8465586 13.530068 58 55 38
-7.301289 4.854293 13.55166 63 60 43
-7.247696 4.843228 13.52077 65 64 44
-7.205628 4.839791 13.511175 61 63 42
-7.2162294 4.871877 13.60075 58 59 41
-7.124384 4.8347726 13.497166 65 64 46
-7.109227 4.8495955 13.538547 71 70 52
-7.0970755 4.8666344 13.586113 63 62 44
-7.0908203 4.8879166 13.645527 61 62 44
-7.064901 4.8957973 13.667527 63 64 46
-7.0561576 4.9157276 13.723166 67 68 50
-7.014557 4.9128585 13.715157 68 67 49
-6.978677 4.913986 13.718306 67 66 48
-6.96206 4.928764 13.75956 72 71 53
-6.914248 4.9214973 13.739274 74 72 57
-6.8564887 4.9070325 13.698893 72 70 55
-6.8061085 4.897719 13.672892 72 70 55
-6.7865896 4.910633 13.708944 72 70 55
-6.7614765 4.9196205 13.734034 67 66 48
-6.7201834 4.9168696 13.726355 87 84 67
-6.6739902 4.910483 13.708525 96 93 74
-6.654965 4.9241257 13.746612 102 99 82
-6.6299243 4.933448 13.772635 110 107 92
-6.577234 4.9221835 13.74119 108 106 93
-6.5492563 4.929391 13.76131 113 111 98
-6.5226135 4.9376917 13.784483 125 123 110
-6.5439377 4.9826117 13.909885 132 130 115
-6.5041437 4.9812484 13.90608 137 136 118
-6.4476733 4.9670224 13.866365 146 144 129
-6.362041 4.9300303 13.763095 141 142 128
-6.309998 4.9187818 13.731693 148 150 137
-6.286183 4.9295344 13.761711 151 154 143
